# .PCD v0.7 - Point Cloud Data file format
VERSION 0.7
FIELDS x y z
SIZE 4 4 4
TYPE F F F
COUNT 1 1 1
WIDTH 257
HEIGHT 1
VIEWPOINT 0 0 0 1 0 0 0
POINTS 257
DATA ascii
-0.15348926 -0.0069324393 0.20724584
-0.11965788 -0.018074639 0.21511459
-0.16751067 -0.025213022 0.2187269
-0.10942944 -0.055818535 0.22093163
-0.13231838 -0.038111154 0.22023708
-0.1193241 0.0087223314 0.22122335
-0.14089879 -0.021009861 0.22328056
-0.13661088 -0.048785701 0.22558737
-0.13639963 0.0024323929 0.22532193
-0.16679113 0.015919957 0.22572532
-0.11866533 -0.063234478 0.22624578
-0.10865781 0.0036982915 0.22782819
-0.10047914 -0.05595303 0.22814079
-0.12358731 0.022641536 0.23015773
-0.17981999 -0.012502834 0.23136835
-0.12956432 -0.064886019 0.23268609
-0.10267037 -0.0030749952 0.23238818
-0.14251466 0.011430723 0.2323864
-0.15037155 -0.043649927 0.23330061
-0.11569314 0.028024349 0.23523341
-0.1794742 0.005334462 0.23652992
-0.16078722 -0.027815951 0.24083586
-0.14445113 -0.065590851 0.2413578
-0.093558706 -0.065689132 0.24110331
-0.13026033 0.029227672 0.24122928
-0.089123666 -0.019477164 0.24352264
-0.16237932 -0.039470792 0.24476373
-0.12253843 -0.067891583 0.24502835
-0.10014533 0.022370582 0.24567857
-0.083425976 -0.033144973 0.24755639
-0.15677145 0.011832514 0.24747609
-0.080288246 -0.044510104 0.24890162
-0.16672285 -0.020616211 0.24855052
-0.090690255 0.016612317 0.25040355
-0.16799536 -0.0047363751 0.25308838
-0.079228185 -0.071099631 0.25787097
-0.078009538 -0.0071194619 0.25740737
-0.069892474 -0.046709888 0.25909746
-0.071315266 -0.03591308 0.26164022
-0.11526942 -0.071864493 0.26233369
-0.073399 -0.015407254 0.26248121
-0.078178138 0.014797643 0.26378515
-0.17287403 -0.043689691 0.2641921
-0.087424025 0.021369601 0.26483405
-0.1214323 0.02503068 0.26509944
-0.060912427 -0.068348415 0.26775444
-0.12338138 -0.072826102 0.26852548
-0.068372421 -0.0046768081 0.26949632
-0.17004079 0.0072170035 0.26955745
-0.059356853 -0.049295042 0.27038586
-0.16047442 0.023570795 0.27180281
-0.17648299 -0.010340788 0.27344081
-0.072222821 0.015688118 0.27320099
-0.1624825 -0.071905635 0.27475005
-0.1777849 -0.033570383 0.27416575
-0.10360909 -0.075534947 0.27747208
-0.053376351 -0.07287652 0.27713412
-0.060064882 -0.0018688347 0.2812773
-0.0419164 -0.064661101 0.28388405
-0.079685502 -0.0095209144 0.28555495
-0.16529226 0.020551501 0.28580442
-0.17924148 -0.025454422 0.2869772
-0.098606274 -0.077808365 0.28771824
-0.12357517 0.020034919 0.28758293
-0.049511746 -0.079006836 0.28835765
-0.10946015 -0.077403098 0.28820914
-0.13455659 -0.076140627 0.28838187
-0.17326273 -0.056983206 0.28825265
-0.17778808 -0.009575652 0.29077315
-0.04711109 -0.0012536992 0.29006445
-0.083076932 -3.8315036e-05 0.29053542
-0.05790497 -0.035943087 0.29177237
-0.13569619 0.019405745 0.29221737
-0.072233893 0.014777474 0.29484636
-0.032023616 -0.05821491 0.29530966
-0.03727062 -0.080518767 0.29746246
-0.079444468 -0.015743867 0.29777938
-0.04145078 -0.0059537156 0.29844031
-0.14910732 -0.07517428 0.29954964
-0.053840972 0.013453844 0.29961628
-0.16381311 -0.046691105 0.30082947
-0.17135449 0.0058095376 0.30069515
-0.075227849 -0.081412137 0.3010453
-0.10683863 0.014766245 0.30257994
-0.16557914 -0.011781403 0.30481488
-0.062289454 0.011451833 0.30476916
-0.12649834 0.015810868 0.30541772
-0.16052999 -0.034844205 0.30685732
-0.070623457 -0.018249184 0.30658716
-0.09075518 -0.0048152395 0.30738786
-0.15041147 -0.069305912 0.30813605
-0.050551586 -0.031630814 0.3098563
-0.10968432 -0.081550717 0.31062955
-0.059503488 -0.023821427 0.31192592
-0.027352063 -0.0087187067 0.31107473
-0.014426212 -0.079132915 0.31273311
-0.014883199 -0.061584055 0.31246963
-0.15929371 0.007439096 0.31208071
-0.13461864 -0.078650974 0.31310031
-0.04991129 0.0099873077 0.31560776
-0.15435749 -0.016619699 0.31625271
-0.018706528 -0.0093750544 0.31818134
-0.1463501 0.012052479 0.31817961
-0.081700988 -0.084825978 0.31928685
-0.066280775 -0.016072528 0.31928384
-0.081794739 -0.0068253609 0.31950355
-0.041058704 -0.031522997 0.32335642
-0.054611884 -0.021484884 0.32440943
-0.026857764 -0.009918767 0.32452375
-0.14159921 -0.037625708 0.32677275
-0.14420623 -0.017557899 0.32681602
-0.038886998 0.0068698032 0.32679018
-0.0090680299 -0.012216243 0.32788393
-0.13341038 0.010779816 0.32749373
-0.057755433 -0.088128775 0.32832164
-0.0013826229 -0.085769475 0.32809678
-0.076380745 -0.087133877 0.32927456
-0.075634114 -0.0067869211 0.33090326
-0.14005837 0.0019136325 0.33142212
-0.10486652 0.0082399929 0.33131528
0.0056427587 -0.064482674 0.3325668
-0.009357213 -0.049190886 0.33214462
-0.11648389 -0.082063675 0.33371347
0.0053542252 -0.053806376 0.33449748
-0.046104904 -0.022160666 0.33566537
-0.029796673 0.004230083 0.33598456
-0.06233624 -0.089775711 0.3371633
-0.12928036 -0.048093468 0.33766776
0.0072259512 -0.043324027 0.3384006
0.0029445146 -0.031286024 0.33888793
-0.13220836 -0.019413482 0.33906966
-0.093240172 0.0056119938 0.34291255
-0.11563977 0.0073488923 0.34251094
-0.082485244 -0.089223847 0.34324992
-0.01879593 -0.03342529 0.34396824
-0.049901199 -0.016703634 0.34398893
0.01566001 -0.049582914 0.34457973
0.0040563866 -0.0037503969 0.34586099
-0.12252392 -0.041273661 0.34637952
-0.1228298 0.00039774404 0.34685192
0.017574579 -0.039743226 0.34795067
0.022683734 -0.086411193 0.34818506
-0.034057569 -0.094555832 0.35133487
0.016539287 -0.094410084 0.35120699
0.017672248 -0.022133064 0.35147688
-0.03051161 -0.023059264 0.3538093
-0.08949849 -0.089606464 0.35485935
-0.1103373 0.0022464036 0.35433972
-0.044075791 -0.09493082 0.35620019
-0.081284806 0.0028880103 0.3572683
-0.015521714 -0.00065649109 0.35837317
-0.10719734 -0.05602213 0.35906941
0.012059902 -0.0033430227 0.35921121
0.036157787 -0.087445587 0.36067522
-0.1079161 -0.045309093 0.36095455
0.031565279 -0.045431189 0.36043555
0.021437852 -0.0087561831 0.36171266
-0.10213201 5.4406992e-05 0.36253631
-0.039678913 -0.015057495 0.36399367
-0.0725713 0.00080246018 0.36544502
0.037531223 -0.040211461 0.36741504
-0.023553191 -0.098641247 0.36828533
-0.034787405 -0.09790948 0.36845672
-0.08744996 -0.085353583 0.36822516
-0.09786883 -0.05440012 0.36941516
-0.017753337 -0.0025665271 0.37043834
0.044813812 -0.094504923 0.37136588
-0.10037399 -0.011428285 0.37110728
-0.069262706 -0.094560228 0.37412837
-0.093601577 -0.039754391 0.37654072
0.037975766 -0.014375245 0.37607068
0.013364029 -0.10134205 0.37763941
-0.080040678 -0.0014855831 0.37754431
0.048316054 -0.042376559 0.37805608
-0.012456913 -0.10184312 0.38156962
-0.076328114 -0.08512944 0.38141927
0.055826634 -0.077057607 0.38134366
-0.089580663 -0.025174901 0.38154566
-0.0022646708 -0.0039973538 0.38158512
-0.082551181 -0.061753638 0.38327685
-0.041130394 -0.0054235673 0.38393205
-0.056491204 -0.097828433 0.38528413
0.06098428 -0.095642269 0.38645568
-0.083423041 -0.032592028 0.38731909
0.063516229 -0.081275761 0.3884379
-0.067846246 -0.087615632 0.38927251
-0.068413429 -0.0045209606 0.38934642
-0.077862829 -0.054990895 0.39000246
-0.0055533955 -0.10406438 0.39127555
-0.01561509 -0.10390228 0.39366624
-0.076347969 -0.013757541 0.3935436
0.0549943 -0.10524704 0.39415637
0.066555008 -0.07369417 0.39431646
0.050529767 -0.013033478 0.39495283
0.064567953 -0.048197769 0.39505455
-0.040394902 -0.10191059 0.39883533
-0.057675797 -0.090555288 0.39871544
0.018446455 -0.10592502 0.39956558
-0.0040670815 -0.0073537682 0.39975712
0.011808318 -0.0076917284 0.3990688
0.056154303 -0.089712001 0.40080485
0.065705769 -0.062713973 0.40238342
-0.058847141 -0.0087425727 0.40228376
-0.061694711 -0.059306446 0.40546626
0.059681877 -0.055894759 0.40658262
0.048796661 -0.10547473 0.40794832
0.065550081 -0.041344862 0.40798417
-0.028772444 -0.104799 0.40895835
0.066362277 -0.026058329 0.40857986
0.038261168 -0.10836998 0.40987438
-0.045533631 -0.0949535 0.40919772
-0.059595272 -0.043875005 0.41002995
-0.060152765 -0.020922173 0.41003048
0.030067302 -0.010797285 0.41046241
-0.019664679 -0.009677602 0.41116136
-0.0013128417 -0.10823295 0.41274837
-0.053428154 -0.05985507 0.41370445
0.0044967858 -0.011163954 0.4163
0.04742679 -0.066270232 0.41787207
0.05918549 -0.016648076 0.41732168
-0.047495201 -0.014795745 0.4174335
0.03003341 -0.10976835 0.419016
-0.044260062 -0.07163766 0.4199279
-0.027910063 -0.10178226 0.42314005
0.011251872 -0.11076622 0.42455399
0.035207484 -0.083155312 0.42485189
0.02667034 -0.013933862 0.4248243
-0.042836823 -0.021784771 0.4259043
0.028129276 -0.098136038 0.42847872
0.033921376 -0.072729081 0.42887571
0.026603613 -0.10918415 0.42943984
-0.037434928 -0.059548505 0.4297145
-0.031718269 -0.078173406 0.43100652
0.03660275 -0.052726921 0.4326207
0.045724861 -0.020799862 0.43262631
-0.032508638 -0.019918118 0.4334597
0.021305079 -0.1057469 0.43753919
0.031785812 -0.040538095 0.43746477
0.024852278 -0.070593506 0.43848693
-0.022533884 -0.079259686 0.44011447
0.0097540505 -0.1128703 0.44108459
-0.0031107794 -0.11067952 0.44130924
0.01818135 -0.080736771 0.44216517
-0.022761878 -0.022062754 0.44290698
0.021642869 -0.061505686 0.44555634
-0.019416543 -0.047753248 0.44822067
0.0090293447 -0.09108822 0.4495382
0.027441302 -0.02187093 0.44966602
0.0095165307 -0.079357088 0.45219567
-0.015789624 -0.032837112 0.45303017
0.00048261471 -0.099693507 0.45564163
-0.0095513724 -0.044014715 0.45785856
0.014406407 -0.034779463 0.45715815
0.015459765 -0.021948315 0.45952469
0.0085476935 -0.062899619 0.46076858
0.0094525972 -0.050933436 0.46156996
0.0015147115 -0.034665287 0.46780887
