# .PCD v0.7 - Point Cloud Data file format
VERSION 0.7
FIELDS x y z rgb
SIZE 4 4 4 4
TYPE F F F U
COUNT 1 1 1 1
WIDTH 1070
HEIGHT 1
VIEWPOINT 0 0 0 1 0 0 0
POINTS 1070
DATA ascii
-0.22700098 0.01683935 -0.38999999 4285624689
-0.22598337 0.01683935 -0.38999999 4285887861
-0.2255426 0.016882528 -0.391 4285887861
-0.22452238 0.016882528 -0.391 4286216826
-0.22350216 0.016882528 -0.391 4286216826
-0.22305094 0.016925706 -0.39199999 4286216826
-0.22156908 0.016968884 -0.39300001 4286545791
-0.22110482 0.017012062 -0.39399999 4286677377
-0.22007675 0.017012062 -0.39399999 4286611584
-0.21960469 0.01705524 -0.39500001 4286677377
-0.21912737 0.017098418 -0.396 4286743170
-0.21919559 0.017184773 -0.398 4286677377
-0.21870524 0.01722795 -0.39899999 4286743170
-0.21770887 0.017314306 -0.40099999 4286940549
-0.21720287 0.017357485 -0.40200001 4286808963
-0.21669164 0.017400661 -0.403 4286743170
-0.21617521 0.017443839 -0.40400001 4286677377
-0.216186 0.017530195 -0.40599999 4286808963
-0.30128661 0.015820839 -0.38999999 4285427310
-0.30026898 0.015820839 -0.38999999 4284374622
-0.29925138 0.015820839 -0.38999999 4283979864
-0.29823378 0.015820839 -0.38999999 4283979864
-0.29721615 0.015820839 -0.38999999 4284045657
-0.29619855 0.015820839 -0.38999999 4284440415
-0.29518092 0.015820839 -0.38999999 4284572001
-0.29416332 0.015820839 -0.38999999 4284835173
-0.29314572 0.015820839 -0.38999999 4284900966
-0.29212809 0.015820839 -0.38999999 4284966759
-0.29111049 0.015820839 -0.38999999 4284900966
-0.29009289 0.015820839 -0.38999999 4284900966
-0.28907526 0.015820839 -0.38999999 4284966759
-0.28805766 0.015820839 -0.38999999 4284966759
-0.28704005 0.015820839 -0.38999999 4284900966
-0.28602242 0.015820839 -0.38999999 4284966759
-0.28427404 0.015780272 -0.389 4284900966
-0.28325903 0.015780272 -0.389 4284966759
-0.28224406 0.015780272 -0.389 4285032552
-0.28122905 0.015780272 -0.389 4284966759
-0.28021404 0.015780272 -0.389 4285032552
-0.27919903 0.015780272 -0.389 4284966759
-0.27818403 0.015780272 -0.389 4285032552
-0.27716902 0.015780272 -0.389 4285164138
-0.27615404 0.015780272 -0.389 4285032552
-0.27513903 0.015780272 -0.389 4285032552
-0.27412403 0.015780272 -0.389 4284966759
-0.27310902 0.015780272 -0.389 4284900966
-0.27209401 0.015780272 -0.389 4284966759
-0.27107903 0.015780272 -0.389 4285098345
-0.27006403 0.015780272 -0.389 4285032552
-0.26904902 0.015780272 -0.389 4284966759
-0.26803401 0.015780272 -0.389 4285032552
-0.267019 0.015780272 -0.389 4284966759
-0.266004 0.015780272 -0.389 4284966759
-0.26498902 0.015780272 -0.389 4285032552
-0.26397401 0.015780272 -0.389 4285032552
-0.262959 0.015780272 -0.389 4285164138
-0.261944 0.015780272 -0.389 4285032552
-0.26092899 0.015780272 -0.389 4285164138
-0.25991401 0.015780272 -0.389 4285032552
-0.258899 0.015780272 -0.389 4285229931
-0.257884 0.015780272 -0.389 4285229931
-0.25686899 0.015780272 -0.389 4285229931
-0.25585398 0.015780272 -0.389 4285295724
-0.25483897 0.015780272 -0.389 4285295724
-0.253824 0.015780272 -0.389 4285295724
-0.25280899 0.015780272 -0.389 4285295724
-0.25179398 0.015780272 -0.389 4285229931
-0.25013432 0.015739707 -0.38800001 4285164138
-0.24912192 0.015739707 -0.38800001 4285164138
-0.24810952 0.015739707 -0.38800001 4285361517
-0.24709713 0.015739707 -0.38800001 4285295724
-0.24608473 0.015739707 -0.38800001 4285361517
-0.24507235 0.015739707 -0.38800001 4285164138
-0.24468897 0.015780272 -0.389 4285229931
-0.24367397 0.015780272 -0.389 4285164138
-0.24265896 0.015780272 -0.389 4285164138
-0.24164397 0.015780272 -0.389 4285229931
-0.24062896 0.015780272 -0.389 4285229931
-0.23961395 0.015780272 -0.389 4285229931
-0.23859896 0.015780272 -0.389 4285295724
-0.23758395 0.015780272 -0.389 4285361517
-0.23656896 0.015780272 -0.389 4285361517
-0.23555395 0.015780272 -0.389 4285295724
-0.23453894 0.015780272 -0.389 4285229931
-0.23352395 0.015780272 -0.389 4285361517
-0.23250894 0.015780272 -0.389 4285361517
-0.23208903 0.015820839 -0.38999999 4285427310
-0.23107143 0.015820839 -0.38999999 4285558896
-0.23005381 0.015820839 -0.38999999 4285361517
-0.2290362 0.015820839 -0.38999999 4285427310
-0.22801858 0.015820839 -0.38999999 4285624689
-0.22700098 0.015820839 -0.38999999 4285624689
-0.22598337 0.015820839 -0.38999999 4285690482
-0.2255426 0.015861405 -0.391 4285887861
-0.22452238 0.015861405 -0.391 4286151033
-0.22350216 0.015861405 -0.391 4286216826
-0.22305094 0.015901972 -0.39199999 4286216826
-0.22156908 0.015942538 -0.39300001 4286545791
-0.22110482 0.015983103 -0.39399999 4286611584
-0.22007675 0.015983103 -0.39399999 4286545791
-0.21960469 0.016023671 -0.39500001 4286611584
-0.21912737 0.016064236 -0.396 4286677377
-0.21919559 0.016145369 -0.398 4286611584
-0.21870524 0.016185934 -0.39899999 4286677377
-0.21770887 0.016267067 -0.40099999 4286743170
-0.21720287 0.016307633 -0.40200001 4286808963
-0.21669164 0.0163482 -0.403 4286808963
-0.21617521 0.016388766 -0.40400001 4286743170
-0.30128661 0.014802326 -0.38999999 4285427310
-0.30026898 0.014802326 -0.38999999 4284308829
-0.29925138 0.014802326 -0.38999999 4284177243
-0.29823378 0.014802326 -0.38999999 4284111450
-0.29721615 0.014802326 -0.38999999 4283979864
-0.29619855 0.014802326 -0.38999999 4284111450
-0.29518092 0.014802326 -0.38999999 4284440415
-0.29416332 0.014802326 -0.38999999 4284637794
-0.29314572 0.014802326 -0.38999999 4284966759
-0.29212809 0.014802326 -0.38999999 4285032552
-0.29111049 0.014802326 -0.38999999 4285032552
-0.29009289 0.014802326 -0.38999999 4285032552
-0.28907526 0.014802326 -0.38999999 4284966759
-0.28805766 0.014802326 -0.38999999 4284966759
-0.28704005 0.014802326 -0.38999999 4284966759
-0.28602242 0.014802326 -0.38999999 4284900966
-0.28500482 0.014802326 -0.38999999 4284900966
-0.28325903 0.014764372 -0.389 4284966759
-0.28224406 0.014764372 -0.389 4285032552
-0.28122905 0.014764372 -0.389 4284966759
-0.28021404 0.014764372 -0.389 4284966759
-0.27919903 0.014764372 -0.389 4284900966
-0.27818403 0.014764372 -0.389 4284966759
-0.27716902 0.014764372 -0.389 4285229931
-0.27615404 0.014764372 -0.389 4284966759
-0.27513903 0.014764372 -0.389 4284900966
-0.27412403 0.014764372 -0.389 4284900966
-0.27310902 0.014764372 -0.389 4284835173
-0.27209401 0.014764372 -0.389 4284900966
-0.27107903 0.014764372 -0.389 4285032552
-0.27006403 0.014764372 -0.389 4284900966
-0.26904902 0.014764372 -0.389 4284900966
-0.26803401 0.014764372 -0.389 4284966759
-0.267019 0.014764372 -0.389 4284966759
-0.266004 0.014764372 -0.389 4284900966
-0.26498902 0.014764372 -0.389 4285032552
-0.26397401 0.014764372 -0.389 4285032552
-0.262959 0.014764372 -0.389 4284966759
-0.261944 0.014764372 -0.389 4285032552
-0.26092899 0.014764372 -0.389 4285164138
-0.25991401 0.014764372 -0.389 4284966759
-0.258899 0.014764372 -0.389 4285164138
-0.257884 0.014764372 -0.389 4285164138
-0.25686899 0.014764372 -0.389 4285295724
-0.25585398 0.014764372 -0.389 4285229931
-0.25483897 0.014764372 -0.389 4285229931
-0.253824 0.014764372 -0.389 4285295724
-0.25280899 0.014764372 -0.389 4285229931
-0.2511467 0.014726418 -0.38800001 4285229931
-0.25013432 0.014726418 -0.38800001 4285164138
-0.24912192 0.014726418 -0.38800001 4285164138
-0.24810952 0.014726418 -0.38800001 4285295724
-0.24709713 0.014726418 -0.38800001 4285361517
-0.24608473 0.014726418 -0.38800001 4285361517
-0.24507235 0.014726418 -0.38800001 4285361517
-0.24405995 0.014726418 -0.38800001 4285295724
-0.24367397 0.014764372 -0.389 4285164138
-0.24265896 0.014764372 -0.389 4285164138
-0.24164397 0.014764372 -0.389 4285229931
-0.24062896 0.014764372 -0.389 4285295724
-0.23961395 0.014764372 -0.389 4285361517
-0.23859896 0.014764372 -0.389 4285361517
-0.23758395 0.014764372 -0.389 4285361517
-0.23656896 0.014764372 -0.389 4285624689
-0.23555395 0.014764372 -0.389 4285361517
-0.23514187 0.014802326 -0.38999999 4285295724
-0.23412426 0.014802326 -0.38999999 4285295724
-0.23310664 0.014802326 -0.38999999 4285295724
-0.23208903 0.014802326 -0.38999999 4285558896
-0.23107143 0.014802326 -0.38999999 4285558896
-0.23005381 0.014802326 -0.38999999 4285558896
-0.2290362 0.014802326 -0.38999999 4285558896
-0.22801858 0.014802326 -0.38999999 4285690482
-0.22700098 0.014802326 -0.38999999 4285756275
-0.22598337 0.014802326 -0.38999999 4285822068
-0.2255426 0.014840282 -0.391 4285887861
-0.22452238 0.014840282 -0.391 4285953654
-0.22350216 0.014840282 -0.391 4286019447
-0.22305094 0.014878236 -0.39199999 4286282619
-0.22156908 0.014916192 -0.39300001 4286545791
-0.22110482 0.014954146 -0.39399999 4286677377
-0.22007675 0.014954146 -0.39399999 4286611584
-0.21960469 0.014992101 -0.39500001 4286611584
-0.21912737 0.015030055 -0.396 4286677377
-0.21919559 0.015105965 -0.398 4286677377
-0.21870524 0.015143919 -0.39899999 4286808963
-0.21770887 0.015219828 -0.40099999 4286940549
-0.21720287 0.015257784 -0.40200001 4286743170
-0.21669164 0.015295738 -0.403 4286940549
-0.21671028 0.015371648 -0.405 4286743170
-0.30307937 0.013819159 -0.391 4286216826
-0.30128661 0.013783815 -0.38999999 4285887861
-0.30026898 0.013783815 -0.38999999 4284440415
-0.29925138 0.013783815 -0.38999999 4284177243
-0.29823378 0.013783815 -0.38999999 4284111450
-0.29721615 0.013783815 -0.38999999 4284045657
-0.29619855 0.013783815 -0.38999999 4284045657
-0.29518092 0.013783815 -0.38999999 4284506208
-0.29416332 0.013783815 -0.38999999 4284572001
-0.29314572 0.013783815 -0.38999999 4284637794
-0.29212809 0.013783815 -0.38999999 4284900966
-0.29111049 0.013783815 -0.38999999 4284966759
-0.29009289 0.013783815 -0.38999999 4284966759
-0.28907526 0.013783815 -0.38999999 4284769380
-0.28805766 0.013783815 -0.38999999 4284900966
-0.28704005 0.013783815 -0.38999999 4284966759
-0.28602242 0.013783815 -0.38999999 4284769380
-0.28500482 0.013783815 -0.38999999 4284835173
-0.28398719 0.013783815 -0.38999999 4284900966
-0.28224406 0.013748473 -0.389 4284900966
-0.28122905 0.013748473 -0.389 4285032552
-0.28021404 0.013748473 -0.389 4285098345
-0.27919903 0.013748473 -0.389 4285229931
-0.27818403 0.013748473 -0.389 4284966759
-0.27716902 0.013748473 -0.389 4285032552
-0.27615404 0.013748473 -0.389 4284966759
-0.27513903 0.013748473 -0.389 4285032552
-0.27412403 0.013748473 -0.389 4284966759
-0.27310902 0.013748473 -0.389 4284835173
-0.27209401 0.013748473 -0.389 4284900966
-0.27107903 0.013748473 -0.389 4284966759
-0.27006403 0.013748473 -0.389 4284769380
-0.26904902 0.013748473 -0.389 4284835173
-0.26803401 0.013748473 -0.389 4284835173
-0.267019 0.013748473 -0.389 4284900966
-0.266004 0.013748473 -0.389 4284900966
-0.26498902 0.013748473 -0.389 4284966759
-0.26397401 0.013748473 -0.389 4284966759
-0.262959 0.013748473 -0.389 4284966759
-0.261944 0.013748473 -0.389 4284966759
-0.26092899 0.013748473 -0.389 4285164138
-0.25991401 0.013748473 -0.389 4285229931
-0.258899 0.013748473 -0.389 4285164138
-0.257884 0.013748473 -0.389 4285164138
-0.25686899 0.013748473 -0.389 4285164138
-0.25585398 0.013748473 -0.389 4285229931
-0.25483897 0.013748473 -0.389 4285229931
-0.253824 0.013748473 -0.389 4285295724
-0.25280899 0.013748473 -0.389 4285361517
-0.25179398 0.013748473 -0.389 4285361517
-0.25013432 0.01371313 -0.38800001 4285295724
-0.24912192 0.01371313 -0.38800001 4285229931
-0.24810952 0.01371313 -0.38800001 4285229931
-0.24709713 0.01371313 -0.38800001 4285229931
-0.24608473 0.01371313 -0.38800001 4285295724
-0.24507235 0.01371313 -0.38800001 4285295724
-0.24405995 0.01371313 -0.38800001 4285295724
-0.24304757 0.01371313 -0.38800001 4285229931
-0.24265896 0.013748473 -0.389 4285164138
-0.24164397 0.013748473 -0.389 4285295724
-0.24062896 0.013748473 -0.389 4285361517
-0.23961395 0.013748473 -0.389 4285361517
-0.23859896 0.013748473 -0.389 4285361517
-0.23758395 0.013748473 -0.389 4285295724
-0.23656896 0.013748473 -0.389 4285493103
-0.23555395 0.013748473 -0.389 4285361517
-0.23514187 0.013783815 -0.38999999 4285361517
-0.23412426 0.013783815 -0.38999999 4285361517
-0.23310664 0.013783815 -0.38999999 4285361517
-0.23208903 0.013783815 -0.38999999 4285361517
-0.23107143 0.013783815 -0.38999999 4285361517
-0.23005381 0.013783815 -0.38999999 4285361517
-0.2290362 0.013783815 -0.38999999 4285427310
-0.22801858 0.013783815 -0.38999999 4285756275
-0.22700098 0.013783815 -0.38999999 4285690482
-0.22598337 0.013783815 -0.38999999 4285756275
-0.2255426 0.013819159 -0.391 4285887861
-0.22452238 0.013819159 -0.391 4286019447
-0.22350216 0.013819159 -0.391 4286085240
-0.22305094 0.013854502 -0.39199999 4286216826
-0.22156908 0.013889845 -0.39300001 4286348412
-0.22110482 0.013925188 -0.39399999 4286677377
-0.22007675 0.013925188 -0.39399999 4286677377
-0.21960469 0.013960532 -0.39500001 4286677377
-0.21912737 0.013995875 -0.396 4286743170
-0.21919559 0.014066561 -0.398 4286677377
-0.21870524 0.014101904 -0.39899999 4286677377
-0.21820967 0.014137248 -0.40000001 4286940549
-0.21720287 0.014207933 -0.40200001 4286677377
-0.21722935 0.01427862 -0.40400001 4286808963
-0.21671028 0.014313962 -0.405 4286743170
-0.21671849 0.014384649 -0.40700001 4286808963
-0.30409959 0.012798036 -0.391 4286019447
-0.30307937 0.012798036 -0.391 4286019447
-0.30205914 0.012798036 -0.391 4285558896
-0.29925138 0.012765304 -0.38999999 4284177243
-0.29823378 0.012765304 -0.38999999 4284111450
-0.29721615 0.012765304 -0.38999999 4284045657
-0.29619855 0.012765304 -0.38999999 4284045657
-0.29518092 0.012765304 -0.38999999 4284506208
-0.29416332 0.012765304 -0.38999999 4284769380
-0.29314572 0.012765304 -0.38999999 4284835173
-0.29212809 0.012765304 -0.38999999 4284900966
-0.29111049 0.012765304 -0.38999999 4284966759
-0.29009289 0.012765304 -0.38999999 4284966759
-0.28907526 0.012765304 -0.38999999 4284900966
-0.28805766 0.012765304 -0.38999999 4284900966
-0.28704005 0.012765304 -0.38999999 4284900966
-0.28602242 0.012765304 -0.38999999 4284835173
-0.28500482 0.012765304 -0.38999999 4284900966
-0.28398719 0.012765304 -0.38999999 4284900966
-0.28224406 0.012732573 -0.389 4284966759
-0.28122905 0.012732573 -0.389 4285032552
-0.28021404 0.012732573 -0.389 4285098345
-0.27919903 0.012732573 -0.389 4285032552
-0.27818403 0.012732573 -0.389 4284966759
-0.27716902 0.012732573 -0.389 4284900966
-0.27615404 0.012732573 -0.389 4285032552
-0.27513903 0.012732573 -0.389 4284900966
-0.27412403 0.012732573 -0.389 4284966759
-0.27310902 0.012732573 -0.389 4284900966
-0.27209401 0.012732573 -0.389 4284835173
-0.27107903 0.012732573 -0.389 4284835173
-0.27006403 0.012732573 -0.389 4284900966
-0.26904902 0.012732573 -0.389 4284966759
-0.26803401 0.012732573 -0.389 4284835173
-0.267019 0.012732573 -0.389 4284900966
-0.266004 0.012732573 -0.389 4284900966
-0.26498902 0.012732573 -0.389 4284835173
-0.26397401 0.012732573 -0.389 4285032552
-0.262959 0.012732573 -0.389 4285032552
-0.261944 0.012732573 -0.389 4285164138
-0.26092899 0.012732573 -0.389 4285164138
-0.25991401 0.012732573 -0.389 4285229931
-0.258899 0.012732573 -0.389 4285229931
-0.257884 0.012732573 -0.389 4285164138
-0.25686899 0.012732573 -0.389 4285032552
-0.25585398 0.012732573 -0.389 4285229931
-0.25483897 0.012732573 -0.389 4285295724
-0.253824 0.012732573 -0.389 4285229931
-0.25280899 0.012732573 -0.389 4285295724
-0.2511467 0.012699842 -0.38800001 4285229931
-0.25013432 0.012699842 -0.38800001 4285229931
-0.24912192 0.012699842 -0.38800001 4285295724
-0.24810952 0.012699842 -0.38800001 4285295724
-0.24709713 0.012699842 -0.38800001 4285361517
-0.24608473 0.012699842 -0.38800001 4285361517
-0.24507235 0.012699842 -0.38800001 4285295724
-0.24405995 0.012699842 -0.38800001 4285361517
-0.24304757 0.012699842 -0.38800001 4285361517
-0.24265896 0.012732573 -0.389 4285295724
-0.24164397 0.012732573 -0.389 4285493103
-0.24062896 0.012732573 -0.389 4285493103
-0.23961395 0.012732573 -0.389 4285493103
-0.23859896 0.012732573 -0.389 4285427310
-0.23758395 0.012732573 -0.389 4285361517
-0.23717709 0.012765304 -0.38999999 4285427310
-0.23615947 0.012765304 -0.38999999 4285427310
-0.23514187 0.012765304 -0.38999999 4285493103
-0.23412426 0.012765304 -0.38999999 4285493103
-0.23310664 0.012765304 -0.38999999 4285493103
-0.23208903 0.012765304 -0.38999999 4285493103
-0.23107143 0.012765304 -0.38999999 4285493103
-0.23005381 0.012765304 -0.38999999 4285427310
-0.2290362 0.012765304 -0.38999999 4285493103
-0.22801858 0.012765304 -0.38999999 4285493103
-0.22700098 0.012765304 -0.38999999 4285756275
-0.22598337 0.012765304 -0.38999999 4285690482
-0.2255426 0.012798036 -0.391 4285887861
-0.22452238 0.012798036 -0.391 4286019447
-0.22350216 0.012798036 -0.391 4286085240
-0.22305094 0.012830767 -0.39199999 4286216826
-0.22156908 0.012863499 -0.39300001 4286282619
-0.22110482 0.01289623 -0.39399999 4286545791
-0.22007675 0.01289623 -0.39399999 4286677377
-0.21960469 0.012928963 -0.39500001 4286611584
-0.21912737 0.012961693 -0.396 4286677377
-0.21919559 0.013027157 -0.398 4286677377
-0.21870524 0.013059888 -0.39899999 4286677377
-0.21820967 0.01309262 -0.40000001 4286808963
-0.21720287 0.013158083 -0.40200001 4286808963
-0.21722935 0.013223547 -0.40400001 4286874756
-0.21671028 0.013256278 -0.405 4286808963
-0.21671849 0.013321741 -0.40700001 4286808963
-0.21564908 0.013387204 -0.40900001 4286743170
-0.30409959 0.011776913 -0.391 4286019447
-0.30307937 0.011776913 -0.391 4286085240
-0.30205914 0.011776913 -0.391 4286019447
-0.30103892 0.011776913 -0.391 4284637794
-0.29823378 0.011746792 -0.38999999 4284177243
-0.29721615 0.011746792 -0.38999999 4284111450
-0.29619855 0.011746792 -0.38999999 4284177243
-0.29518092 0.011746792 -0.38999999 4284440415
-0.29416332 0.011746792 -0.38999999 4284703587
-0.29314572 0.011746792 -0.38999999 4284769380
-0.29212809 0.011746792 -0.38999999 4284769380
-0.29111049 0.011746792 -0.38999999 4284835173
-0.29009289 0.011746792 -0.38999999 4284900966
-0.28907526 0.011746792 -0.38999999 4284966759
-0.28805766 0.011746792 -0.38999999 4285032552
-0.28704005 0.011746792 -0.38999999 4284966759
-0.28602242 0.011746792 -0.38999999 4284900966
-0.28500482 0.011746792 -0.38999999 4284900966
-0.28398719 0.011746792 -0.38999999 4284966759
-0.28224406 0.011716673 -0.389 4285032552
-0.28122905 0.011716673 -0.389 4285032552
-0.28021404 0.011716673 -0.389 4284966759
-0.27919903 0.011716673 -0.389 4284966759
-0.27818403 0.011716673 -0.389 4285032552
-0.27716902 0.011716673 -0.389 4285032552
-0.27615404 0.011716673 -0.389 4284966759
-0.27513903 0.011716673 -0.389 4284966759
-0.27412403 0.011716673 -0.389 4284835173
-0.27310902 0.011716673 -0.389 4284835173
-0.27209401 0.011716673 -0.389 4285164138
-0.27107903 0.011716673 -0.389 4284900966
-0.27006403 0.011716673 -0.389 4284900966
-0.26904902 0.011716673 -0.389 4284966759
-0.26803401 0.011716673 -0.389 4284835173
-0.267019 0.011716673 -0.389 4284835173
-0.266004 0.011716673 -0.389 4284900966
-0.26498902 0.011716673 -0.389 4284835173
-0.26397401 0.011716673 -0.389 4284835173
-0.262959 0.011716673 -0.389 4284900966
-0.261944 0.011716673 -0.389 4284900966
-0.26092899 0.011716673 -0.389 4284966759
-0.25991401 0.011716673 -0.389 4285164138
-0.258899 0.011716673 -0.389 4284966759
-0.257884 0.011716673 -0.389 4284966759
-0.25686899 0.011716673 -0.389 4284966759
-0.25585398 0.011716673 -0.389 4285164138
-0.25483897 0.011716673 -0.389 4285295724
-0.253824 0.011716673 -0.389 4285229931
-0.25280899 0.011716673 -0.389 4285229931
-0.2511467 0.011686553 -0.38800001 4285295724
-0.25013432 0.011686553 -0.38800001 4285361517
-0.24976398 0.011716673 -0.389 4285361517
-0.24810952 0.011686553 -0.38800001 4285229931
-0.24709713 0.011686553 -0.38800001 4285164138
-0.24671897 0.011716673 -0.389 4285164138
-0.24507235 0.011686553 -0.38800001 4285295724
-0.24405995 0.011686553 -0.38800001 4285295724
-0.24304757 0.011686553 -0.38800001 4285361517
-0.24203517 0.011686553 -0.38800001 4285361517
-0.24102278 0.011686553 -0.38800001 4285427310
-0.24062896 0.011716673 -0.389 4285493103
-0.23961395 0.011716673 -0.389 4285427310
-0.23859896 0.011716673 -0.389 4285427310
-0.23758395 0.011716673 -0.389 4285493103
-0.23656896 0.011716673 -0.389 4285427310
-0.23615947 0.011746792 -0.38999999 4285427310
-0.23514187 0.011746792 -0.38999999 4285427310
-0.23412426 0.011746792 -0.38999999 4285493103
-0.23310664 0.011746792 -0.38999999 4285427310
-0.23208903 0.011746792 -0.38999999 4285427310
-0.23107143 0.011746792 -0.38999999 4285427310
-0.23005381 0.011746792 -0.38999999 4285427310
-0.2290362 0.011746792 -0.38999999 4285427310
-0.22801858 0.011746792 -0.38999999 4285493103
-0.22700098 0.011746792 -0.38999999 4285756275
-0.22598337 0.011746792 -0.38999999 4285624689
-0.2255426 0.011776913 -0.391 4285887861
-0.22452238 0.011776913 -0.391 4286019447
-0.22350216 0.011776913 -0.391 4286085240
-0.22305094 0.011807033 -0.39199999 4286151033
-0.22156908 0.011837153 -0.39300001 4286348412
-0.22007675 0.011867273 -0.39399999 4286545791
-0.21960469 0.011897394 -0.39500001 4286677377
-0.21857403 0.011897394 -0.39500001 4286677377
-0.21864486 0.011957633 -0.39700001 4286611584
-0.21870524 0.012017872 -0.39899999 4286677377
-0.21766414 0.012017872 -0.39899999 4286743170
-0.21720287 0.012108233 -0.40200001 4286743170
-0.21669164 0.012138353 -0.403 4286743170
-0.21671028 0.012198593 -0.405 4286808963
-0.21671849 0.012258832 -0.40700001 4286611584
-0.30307937 0.010755789 -0.391 4286085240
-0.30205914 0.010755789 -0.391 4285690482
-0.30103892 0.010755789 -0.391 4284835173
-0.29823378 0.010728281 -0.38999999 4284111450
-0.29721615 0.010728281 -0.38999999 4283979864
-0.29619855 0.010728281 -0.38999999 4284243036
-0.29518092 0.010728281 -0.38999999 4284506208
-0.29416332 0.010728281 -0.38999999 4284637794
-0.29314572 0.010728281 -0.38999999 4284835173
-0.29212809 0.010728281 -0.38999999 4284966759
-0.29111049 0.010728281 -0.38999999 4284900966
-0.29009289 0.010728281 -0.38999999 4284966759
-0.28907526 0.010728281 -0.38999999 4285032552
-0.28805766 0.010728281 -0.38999999 4284966759
-0.28704005 0.010728281 -0.38999999 4284966759
-0.28602242 0.010728281 -0.38999999 4285032552
-0.28500482 0.010728281 -0.38999999 4284900966
-0.28398719 0.010728281 -0.38999999 4284900966
-0.28224406 0.010700773 -0.389 4284966759
-0.28122905 0.010700773 -0.389 4285032552
-0.28021404 0.010700773 -0.389 4284966759
-0.27919903 0.010700773 -0.389 4285229931
-0.27818403 0.010700773 -0.389 4284966759
-0.27716902 0.010700773 -0.389 4285032552
-0.27615404 0.010700773 -0.389 4285032552
-0.27513903 0.010700773 -0.389 4285032552
-0.27412403 0.010700773 -0.389 4285032552
-0.27310902 0.010700773 -0.389 4284966759
-0.27209401 0.010700773 -0.389 4285164138
-0.27107903 0.010700773 -0.389 4285164138
-0.27006403 0.010700773 -0.389 4284966759
-0.26904902 0.010700773 -0.389 4284900966
-0.26803401 0.010700773 -0.389 4284900966
-0.267019 0.010700773 -0.389 4284966759
-0.266004 0.010700773 -0.389 4284966759
-0.26498902 0.010700773 -0.389 4284900966
-0.26397401 0.010700773 -0.389 4284835173
-0.262959 0.010700773 -0.389 4284835173
-0.261944 0.010700773 -0.389 4285032552
-0.26092899 0.010700773 -0.389 4284966759
-0.25991401 0.010700773 -0.389 4284900966
-0.258899 0.010700773 -0.389 4285098345
-0.257884 0.010700773 -0.389 4284966759
-0.25686899 0.010700773 -0.389 4285032552
-0.25585398 0.010700773 -0.389 4285032552
-0.25483897 0.010700773 -0.389 4284966759
-0.253824 0.010700773 -0.389 4285229931
-0.25280899 0.010700773 -0.389 4285229931
-0.25179398 0.010700773 -0.389 4285229931
-0.25077897 0.010700773 -0.389 4285295724
-0.24976398 0.010700773 -0.389 4285229931
-0.24874897 0.010700773 -0.389 4285361517
-0.24773397 0.010700773 -0.389 4285164138
-0.24671897 0.010700773 -0.389 4285164138
-0.24507235 0.010673265 -0.38800001 4285229931
-0.24405995 0.010673265 -0.38800001 4285164138
-0.24304757 0.010673265 -0.38800001 4285295724
-0.24203517 0.010673265 -0.38800001 4285295724
-0.24102278 0.010673265 -0.38800001 4285295724
-0.24001038 0.010673265 -0.38800001 4285295724
-0.23961395 0.010700773 -0.389 4285361517
-0.23859896 0.010700773 -0.389 4285427310
-0.23758395 0.010700773 -0.389 4285493103
-0.23656896 0.010700773 -0.389 4285427310
-0.23555395 0.010700773 -0.389 4285493103
-0.23514187 0.010728281 -0.38999999 4285361517
-0.23412426 0.010728281 -0.38999999 4285493103
-0.23310664 0.010728281 -0.38999999 4285427310
-0.23208903 0.010728281 -0.38999999 4285427310
-0.23107143 0.010728281 -0.38999999 4285427310
-0.23005381 0.010728281 -0.38999999 4285427310
-0.2290362 0.010728281 -0.38999999 4285427310
-0.22801858 0.010728281 -0.38999999 4285427310
-0.22700098 0.010728281 -0.38999999 4285690482
-0.22656281 0.010755789 -0.391 4285624689
-0.2255426 0.010755789 -0.391 4285822068
-0.22452238 0.010755789 -0.391 4285822068
-0.22350216 0.010755789 -0.391 4286085240
-0.22305094 0.010783298 -0.39199999 4286216826
-0.22156908 0.010810806 -0.39300001 4286282619
-0.22007675 0.010838315 -0.39399999 4286611584
-0.21960469 0.010865823 -0.39500001 4286743170
-0.21857403 0.010865823 -0.39500001 4286677377
-0.21864486 0.01092084 -0.39700001 4286611584
-0.21815711 0.010948349 -0.398 4286743170
-0.21766414 0.010975857 -0.39899999 4286743170
-0.21666256 0.011030873 -0.40099999 4286743170
-0.21669164 0.01108589 -0.403 4286611584
-0.216186 0.011168416 -0.40599999 4286743170
-0.30307937 0.0097346669 -0.391 4286151033
-0.30205914 0.0097346669 -0.391 4286282619
-0.30103892 0.0097346669 -0.391 4284835173
-0.3000187 0.0097346669 -0.391 4284308829
-0.29823378 0.0097097699 -0.38999999 4284111450
-0.29721615 0.0097097699 -0.38999999 4283848278
-0.29619855 0.0097097699 -0.38999999 4284045657
-0.29518092 0.0097097699 -0.38999999 4284440415
-0.29416332 0.0097097699 -0.38999999 4284572001
-0.29314572 0.0097097699 -0.38999999 4284900966
-0.29212809 0.0097097699 -0.38999999 4285032552
-0.29111049 0.0097097699 -0.38999999 4284966759
-0.29009289 0.0097097699 -0.38999999 4284966759
-0.28907526 0.0097097699 -0.38999999 4285032552
-0.28805766 0.0097097699 -0.38999999 4284966759
-0.28704005 0.0097097699 -0.38999999 4285032552
-0.28602242 0.0097097699 -0.38999999 4285032552
-0.28500482 0.0097097699 -0.38999999 4285032552
-0.28398719 0.0097097699 -0.38999999 4284966759
-0.28296959 0.0097097699 -0.38999999 4284966759
-0.28195199 0.0097097699 -0.38999999 4284835173
-0.28021404 0.0096848728 -0.389 4284900966
-0.27919903 0.0096848728 -0.389 4285032552
-0.27818403 0.0096848728 -0.389 4284900966
-0.27716902 0.0096848728 -0.389 4284900966
-0.27615404 0.0096848728 -0.389 4284966759
-0.27513903 0.0096848728 -0.389 4284966759
-0.27412403 0.0096848728 -0.389 4285164138
-0.27310902 0.0096848728 -0.389 4284966759
-0.27209401 0.0096848728 -0.389 4284966759
-0.27107903 0.0096848728 -0.389 4284900966
-0.27006403 0.0096848728 -0.389 4284900966
-0.26904902 0.0096848728 -0.389 4284835173
-0.26803401 0.0096848728 -0.389 4284835173
-0.267019 0.0096848728 -0.389 4284966759
-0.266004 0.0096848728 -0.389 4284966759
-0.26498902 0.0096848728 -0.389 4285032552
-0.26397401 0.0096848728 -0.389 4284966759
-0.262959 0.0096848728 -0.389 4284900966
-0.261944 0.0096848728 -0.389 4284966759
-0.26092899 0.0096848728 -0.389 4284900966
-0.25991401 0.0096848728 -0.389 4284966759
-0.258899 0.0096848728 -0.389 4285032552
-0.257884 0.0096848728 -0.389 4285032552
-0.25686899 0.0096848728 -0.389 4285032552
-0.25585398 0.0096848728 -0.389 4285032552
-0.25483897 0.0096848728 -0.389 4285229931
-0.253824 0.0096848728 -0.389 4285032552
-0.25280899 0.0096848728 -0.389 4285164138
-0.25179398 0.0096848728 -0.389 4285032552
-0.25077897 0.0096848728 -0.389 4285032552
-0.24976398 0.0096848728 -0.389 4285164138
-0.24874897 0.0096848728 -0.389 4285295724
-0.24773397 0.0096848728 -0.389 4285229931
-0.24671897 0.0096848728 -0.389 4285229931
-0.24507235 0.0096599767 -0.38800001 4285164138
-0.24405995 0.0096599767 -0.38800001 4285164138
-0.24304757 0.0096599767 -0.38800001 4285229931
-0.24203517 0.0096599767 -0.38800001 4285164138
-0.24102278 0.0096599767 -0.38800001 4285295724
-0.24001038 0.0096599767 -0.38800001 4285361517
-0.23961395 0.0096848728 -0.389 4285558896
-0.23859896 0.0096848728 -0.389 4285295724
-0.23758395 0.0096848728 -0.389 4285493103
-0.23656896 0.0096848728 -0.389 4285427310
-0.23615947 0.0097097699 -0.38999999 4285493103
-0.23514187 0.0097097699 -0.38999999 4285361517
-0.23412426 0.0097097699 -0.38999999 4285493103
-0.23310664 0.0097097699 -0.38999999 4285493103
-0.23208903 0.0097097699 -0.38999999 4285427310
-0.23107143 0.0097097699 -0.38999999 4285427310
-0.23005381 0.0097097699 -0.38999999 4285361517
-0.22962348 0.0097346669 -0.391 4285493103
-0.22860326 0.0097346669 -0.391 4285558896
-0.22758304 0.0097346669 -0.391 4285624689
-0.22656281 0.0097346669 -0.391 4285756275
-0.2255426 0.0097346669 -0.391 4285822068
-0.22452238 0.0097346669 -0.391 4286019447
-0.22350216 0.0097346669 -0.391 4286216826
-0.22305094 0.009759563 -0.39199999 4286216826
-0.22156908 0.009784461 -0.39300001 4286479998
-0.22110482 0.0098093571 -0.39399999 4286414205
-0.22007675 0.0098093571 -0.39399999 4286611584
-0.21960469 0.0098342542 -0.39500001 4286677377
-0.21857403 0.0098342542 -0.39500001 4286677377
-0.21864486 0.0098840483 -0.39700001 4286611584
-0.21815711 0.0099089444 -0.398 4286545791
-0.21766414 0.0099338414 -0.39899999 4286677377
-0.21716596 0.0099587385 -0.40000001 4286677377
-0.21615395 0.010008533 -0.40200001 4286611584
-0.30307937 0.0087135434 -0.391 4286348412
-0.30205914 0.0087135434 -0.391 4286479998
-0.30103892 0.0087135434 -0.391 4284769380
-0.29925138 0.0086912578 -0.38999999 4284111450
-0.29823378 0.0086912578 -0.38999999 4283848278
-0.29721615 0.0086912578 -0.38999999 4284111450
-0.29619855 0.0086912578 -0.38999999 4284177243
-0.29518092 0.0086912578 -0.38999999 4284243036
-0.29416332 0.0086912578 -0.38999999 4284506208
-0.29314572 0.0086912578 -0.38999999 4284900966
-0.29212809 0.0086912578 -0.38999999 4284835173
-0.29111049 0.0086912578 -0.38999999 4284900966
-0.29009289 0.0086912578 -0.38999999 4284966759
-0.28907526 0.0086912578 -0.38999999 4284966759
-0.28805766 0.0086912578 -0.38999999 4285032552
-0.28704005 0.0086912578 -0.38999999 4285032552
-0.28602242 0.0086912578 -0.38999999 4284966759
-0.28500482 0.0086912578 -0.38999999 4285032552
-0.28398719 0.0086912578 -0.38999999 4284966759
-0.28296959 0.0086912578 -0.38999999 4284966759
-0.28122905 0.0086689731 -0.389 4284900966
-0.28021404 0.0086689731 -0.389 4284835173
-0.27919903 0.0086689731 -0.389 4285032552
-0.27818403 0.0086689731 -0.389 4284966759
-0.27716902 0.0086689731 -0.389 4284900966
-0.27615404 0.0086689731 -0.389 4284966759
-0.27513903 0.0086689731 -0.389 4284966759
-0.27412403 0.0086689731 -0.389 4284966759
-0.27310902 0.0086689731 -0.389 4284900966
-0.27209401 0.0086689731 -0.389 4284966759
-0.27107903 0.0086689731 -0.389 4284835173
-0.27006403 0.0086689731 -0.389 4284769380
-0.26904902 0.0086689731 -0.389 4284835173
-0.26803401 0.0086689731 -0.389 4284900966
-0.267019 0.0086689731 -0.389 4284900966
-0.266004 0.0086689731 -0.389 4284966759
-0.26498902 0.0086689731 -0.389 4284900966
-0.26397401 0.0086689731 -0.389 4284900966
-0.262959 0.0086689731 -0.389 4285032552
-0.261944 0.0086689731 -0.389 4284900966
-0.26092899 0.0086689731 -0.389 4284966759
-0.25991401 0.0086689731 -0.389 4285098345
-0.258899 0.0086689731 -0.389 4285229931
-0.257884 0.0086689731 -0.389 4285229931
-0.25686899 0.0086689731 -0.389 4285229931
-0.25585398 0.0086689731 -0.389 4284966759
-0.25483897 0.0086689731 -0.389 4285032552
-0.253824 0.0086689731 -0.389 4285032552
-0.25280899 0.0086689731 -0.389 4285229931
-0.25179398 0.0086689731 -0.389 4285098345
-0.25077897 0.0086689731 -0.389 4284966759
-0.24976398 0.0086689731 -0.389 4284900966
-0.24874897 0.0086689731 -0.389 4284966759
-0.24773397 0.0086689731 -0.389 4285098345
-0.24671897 0.0086689731 -0.389 4285164138
-0.24570397 0.0086689731 -0.389 4285229931
-0.24405995 0.0086466884 -0.38800001 4285164138
-0.24304757 0.0086466884 -0.38800001 4285229931
-0.24203517 0.0086466884 -0.38800001 4285229931
-0.24102278 0.0086466884 -0.38800001 4285229931
-0.24001038 0.0086466884 -0.38800001 4285361517
-0.23961395 0.0086689731 -0.389 4285493103
-0.23859896 0.0086689731 -0.389 4285493103
-0.23758395 0.0086689731 -0.389 4285427310
-0.23656896 0.0086689731 -0.389 4285361517
-0.23615947 0.0086912578 -0.38999999 4285361517
-0.23514187 0.0086912578 -0.38999999 4285493103
-0.23412426 0.0086912578 -0.38999999 4285493103
-0.23310664 0.0086912578 -0.38999999 4285493103
-0.23208903 0.0086912578 -0.38999999 4285493103
-0.23107143 0.0086912578 -0.38999999 4285427310
-0.2306437 0.0087135434 -0.391 4285493103
-0.22962348 0.0087135434 -0.391 4285624689
-0.22860326 0.0087135434 -0.391 4285690482
-0.22758304 0.0087135434 -0.391 4285624689
-0.22656281 0.0087135434 -0.391 4285756275
-0.2255426 0.0087135434 -0.391 4285822068
-0.22452238 0.0087135434 -0.391 4285822068
-0.22350216 0.0087135434 -0.391 4286151033
-0.22305094 0.008735829 -0.39199999 4286216826
-0.22156908 0.0087581147 -0.39300001 4286414205
-0.22007675 0.0087803993 -0.39399999 4286479998
-0.21960469 0.008802685 -0.39500001 4286479998
-0.21857403 0.008802685 -0.39500001 4286611584
-0.21809411 0.0088249696 -0.396 4286677377
-0.21815711 0.0088695409 -0.398 4286611584
-0.21766414 0.0088918256 -0.39899999 4286677377
-0.21662304 0.0088918256 -0.39899999 4286743170
-0.30026898 0.0076727467 -0.38999999 4285558896
-0.29925138 0.0076727467 -0.38999999 4283914071
-0.29823378 0.0076727467 -0.38999999 4283848278
-0.29721615 0.0076727467 -0.38999999 4284111450
-0.29619855 0.0076727467 -0.38999999 4284243036
-0.29518092 0.0076727467 -0.38999999 4284243036
-0.29416332 0.0076727467 -0.38999999 4284637794
-0.29314572 0.0076727467 -0.38999999 4284835173
-0.29212809 0.0076727467 -0.38999999 4284966759
-0.29111049 0.0076727467 -0.38999999 4284835173
-0.29009289 0.0076727467 -0.38999999 4284900966
-0.28907526 0.0076727467 -0.38999999 4285032552
-0.28805766 0.0076727467 -0.38999999 4284966759
-0.28704005 0.0076727467 -0.38999999 4285164138
-0.28602242 0.0076727467 -0.38999999 4285032552
-0.28500482 0.0076727467 -0.38999999 4284900966
-0.28398719 0.0076727467 -0.38999999 4284703587
-0.28296959 0.0076727467 -0.38999999 4284900966
-0.28122905 0.0076530734 -0.389 4284900966
-0.28093436 0.0076727467 -0.38999999 4284966759
-0.27919903 0.0076530734 -0.389 4284900966
-0.27818403 0.0076530734 -0.389 4284835173
-0.27716902 0.0076530734 -0.389 4284900966
-0.27615404 0.0076530734 -0.389 4284966759
-0.27513903 0.0076530734 -0.389 4284900966
-0.27412403 0.0076530734 -0.389 4284835173
-0.27310902 0.0076530734 -0.389 4284835173
-0.27209401 0.0076530734 -0.389 4284900966
-0.27107903 0.0076530734 -0.389 4284966759
-0.27006403 0.0076530734 -0.389 4285164138
-0.26904902 0.0076530734 -0.389 4285032552
-0.26803401 0.0076530734 -0.389 4284769380
-0.267019 0.0076530734 -0.389 4284900966
-0.266004 0.0076530734 -0.389 4284835173
-0.26498902 0.0076530734 -0.389 4284769380
-0.26397401 0.0076530734 -0.389 4284966759
-0.262959 0.0076530734 -0.389 4285164138
-0.261944 0.0076530734 -0.389 4284900966
-0.26092899 0.0076530734 -0.389 4284900966
-0.25991401 0.0076530734 -0.389 4285164138
-0.258899 0.0076530734 -0.389 4285032552
-0.257884 0.0076530734 -0.389 4285164138
-0.25686899 0.0076530734 -0.389 4285164138
-0.25585398 0.0076530734 -0.389 4285032552
-0.25483897 0.0076530734 -0.389 4285032552
-0.253824 0.0076530734 -0.389 4285032552
-0.25280899 0.0076530734 -0.389 4285032552
-0.25179398 0.0076530734 -0.389 4285229931
-0.25077897 0.0076530734 -0.389 4285229931
-0.24976398 0.0076530734 -0.389 4285229931
-0.24874897 0.0076530734 -0.389 4284966759
-0.24773397 0.0076530734 -0.389 4285164138
-0.24671897 0.0076530734 -0.389 4285164138
-0.24570397 0.0076530734 -0.389 4285295724
-0.24468897 0.0076530734 -0.389 4285229931
-0.24367397 0.0076530734 -0.389 4285229931
-0.24203517 0.0076333997 -0.38800001 4285229931
-0.24102278 0.0076333997 -0.38800001 4285361517
-0.24001038 0.0076333997 -0.38800001 4285295724
-0.23961395 0.0076530734 -0.389 4285427310
-0.23859896 0.0076530734 -0.389 4285361517
-0.23758395 0.0076530734 -0.389 4285361517
-0.23717709 0.0076727467 -0.38999999 4285361517
-0.23615947 0.0076727467 -0.38999999 4285427310
-0.23514187 0.0076727467 -0.38999999 4285493103
-0.23412426 0.0076727467 -0.38999999 4285427310
-0.23310664 0.0076727467 -0.38999999 4285624689
-0.23208903 0.0076727467 -0.38999999 4285690482
-0.23166393 0.0076924209 -0.391 4285427310
-0.2306437 0.0076924209 -0.391 4285624689
-0.22962348 0.0076924209 -0.391 4285493103
-0.22860326 0.0076924209 -0.391 4285493103
-0.22758304 0.0076924209 -0.391 4285756275
-0.22656281 0.0076924209 -0.391 4285822068
-0.2255426 0.0076924209 -0.391 4285887861
-0.22452238 0.0076924209 -0.391 4286019447
-0.22350216 0.0076924209 -0.391 4286085240
-0.22305094 0.0077120941 -0.39199999 4286348412
-0.22156908 0.0077317683 -0.39300001 4286414205
-0.22007675 0.0077514416 -0.39399999 4286611584
-0.21960469 0.0077711158 -0.39500001 4286611584
-0.21857403 0.0077711158 -0.39500001 4286611584
-0.21809411 0.007790789 -0.396 4286677377
-0.21760897 0.0078104632 -0.39700001 4286545791
-0.21711862 0.0078301365 -0.398 4286611584
-0.21662304 0.0078498097 -0.39899999 4286677377
-0.21507856 0.0078694839 -0.40000001 4286940549
-0.34354776 0.0072684726 -0.426 4286151033
-0.3416324 0.0072514107 -0.42500001 4285953654
-0.34052345 0.0072514107 -0.42500001 4286019447
-0.33861589 0.0072343484 -0.42399999 4286019447
-0.33671355 0.0072172862 -0.42300001 4286216826
-0.33560982 0.0072172862 -0.42300001 4285887861
-0.33450612 0.0072172862 -0.42300001 4285887861
-0.30026898 0.0066542351 -0.38999999 4285624689
-0.29925138 0.0066542351 -0.38999999 4283914071
-0.29823378 0.0066542351 -0.38999999 4283914071
-0.29721615 0.0066542351 -0.38999999 4284045657
-0.29619855 0.0066542351 -0.38999999 4284177243
-0.29518092 0.0066542351 -0.38999999 4284243036
-0.29416332 0.0066542351 -0.38999999 4284703587
-0.29314572 0.0066542351 -0.38999999 4284637794
-0.29212809 0.0066542351 -0.38999999 4284900966
-0.29111049 0.0066542351 -0.38999999 4284769380
-0.29009289 0.0066542351 -0.38999999 4284835173
-0.28907526 0.0066542351 -0.38999999 4284966759
-0.28805766 0.0066542351 -0.38999999 4285098345
-0.28704005 0.0066542351 -0.38999999 4284966759
-0.28602242 0.0066542351 -0.38999999 4284835173
-0.28500482 0.0066542351 -0.38999999 4284900966
-0.28398719 0.0066542351 -0.38999999 4284966759
-0.28296959 0.0066542351 -0.38999999 4284966759
-0.28195199 0.0066542351 -0.38999999 4284900966
-0.28093436 0.0066542351 -0.38999999 4284900966
-0.27991676 0.0066542351 -0.38999999 4284900966
-0.27889916 0.0066542351 -0.38999999 4284835173
-0.27788153 0.0066542351 -0.38999999 4284835173
-0.27615404 0.0066371732 -0.389 4284900966
-0.27513903 0.0066371732 -0.389 4284966759
-0.27412403 0.0066371732 -0.389 4284900966
-0.27310902 0.0066371732 -0.389 4284835173
-0.27209401 0.0066371732 -0.389 4284835173
-0.27107903 0.0066371732 -0.389 4284835173
-0.27006403 0.0066371732 -0.389 4284966759
-0.26904902 0.0066371732 -0.389 4284900966
-0.26803401 0.0066371732 -0.389 4284835173
-0.267019 0.0066371732 -0.389 4284900966
-0.266004 0.0066371732 -0.389 4284835173
-0.26498902 0.0066371732 -0.389 4284769380
-0.26397401 0.0066371732 -0.389 4284835173
-0.262959 0.0066371732 -0.389 4284900966
-0.261944 0.0066371732 -0.389 4284900966
-0.26092899 0.0066371732 -0.389 4284966759
-0.25991401 0.0066371732 -0.389 4285032552
-0.258899 0.0066371732 -0.389 4285164138
-0.257884 0.0066371732 -0.389 4285032552
-0.25686899 0.0066371732 -0.389 4285295724
-0.25585398 0.0066371732 -0.389 4285032552
-0.25483897 0.0066371732 -0.389 4284966759
-0.253824 0.0066371732 -0.389 4285032552
-0.25280899 0.0066371732 -0.389 4285032552
-0.25179398 0.0066371732 -0.389 4285164138
-0.25077897 0.0066371732 -0.389 4285164138
-0.24976398 0.0066371732 -0.389 4285164138
-0.24874897 0.0066371732 -0.389 4285164138
-0.24773397 0.0066371732 -0.389 4285164138
-0.24671897 0.0066371732 -0.389 4285229931
-0.24570397 0.0066371732 -0.389 4285032552
-0.24468897 0.0066371732 -0.389 4285295724
-0.24367397 0.0066371732 -0.389 4285295724
-0.24265896 0.0066371732 -0.389 4285361517
-0.24164397 0.0066371732 -0.389 4285361517
-0.24062896 0.0066371732 -0.389 4285229931
-0.23961395 0.0066371732 -0.389 4285427310
-0.23859896 0.0066371732 -0.389 4285361517
-0.23758395 0.0066371732 -0.389 4285361517
-0.23717709 0.0066542351 -0.38999999 4285427310
-0.23615947 0.0066542351 -0.38999999 4285427310
-0.23514187 0.0066542351 -0.38999999 4285427310
-0.23412426 0.0066542351 -0.38999999 4285361517
-0.23310664 0.0066542351 -0.38999999 4285361517
-0.23208903 0.0066542351 -0.38999999 4285427310
-0.23166393 0.0066712978 -0.391 4285427310
-0.2306437 0.0066712978 -0.391 4285493103
-0.22962348 0.0066712978 -0.391 4285427310
-0.22860326 0.0066712978 -0.391 4285427310
-0.22758304 0.0066712978 -0.391 4285756275
-0.22656281 0.0066712978 -0.391 4285822068
-0.2255426 0.0066712978 -0.391 4285953654
-0.22452238 0.0066712978 -0.391 4285822068
-0.22350216 0.0066712978 -0.391 4286151033
-0.22305094 0.0066883597 -0.39199999 4286151033
-0.22156908 0.006705422 -0.39300001 4286348412
-0.22007675 0.0067224838 -0.39399999 4286479998
-0.21960469 0.0067395465 -0.39500001 4286611584
-0.21857403 0.0067395465 -0.39500001 4286611584
-0.21809411 0.0067566084 -0.396 4286677377
-0.21760897 0.0067736707 -0.39700001 4286677377
-0.21711862 0.0067907325 -0.398 4286677377
-0.21608013 0.0067907325 -0.398 4286677377
-0.21558195 0.0068077948 -0.39899999 4286677377
-0.21454085 0.0068077948 -0.39899999 4286808963
-0.34274131 0.0061414945 -0.42500001 4286019447
-0.34082854 0.0061270436 -0.42399999 4285887861
-0.33972222 0.0061270436 -0.42399999 4285953654
-0.33781728 0.0061125932 -0.42300001 4286019447
-0.33671355 0.0061125932 -0.42300001 4286019447
-0.33481643 0.0060981424 -0.42199999 4286019447
-0.33371532 0.0060981424 -0.42199999 4286151033
-0.30026898 0.0056357239 -0.38999999 4285558896
-0.29925138 0.0056357239 -0.38999999 4284177243
-0.29823378 0.0056357239 -0.38999999 4284177243
-0.29721615 0.0056357239 -0.38999999 4283979864
-0.29619855 0.0056357239 -0.38999999 4284177243
-0.29518092 0.0056357239 -0.38999999 4284243036
-0.29416332 0.0056357239 -0.38999999 4284637794
-0.29314572 0.0056357239 -0.38999999 4284637794
-0.29212809 0.0056357239 -0.38999999 4284966759
-0.29111049 0.0056357239 -0.38999999 4284900966
-0.29009289 0.0056357239 -0.38999999 4284966759
-0.28907526 0.0056357239 -0.38999999 4284900966
-0.28805766 0.0056357239 -0.38999999 4284966759
-0.28704005 0.0056357239 -0.38999999 4285032552
-0.28602242 0.0056357239 -0.38999999 4284900966
-0.28500482 0.0056357239 -0.38999999 4284835173
-0.28398719 0.0056357239 -0.38999999 4284835173
-0.28296959 0.0056357239 -0.38999999 4284900966
-0.28195199 0.0056357239 -0.38999999 4284900966
-0.28093436 0.0056357239 -0.38999999 4284900966
-0.27991676 0.0056357239 -0.38999999 4284966759
-0.27889916 0.0056357239 -0.38999999 4284966759
-0.27788153 0.0056357239 -0.38999999 4285032552
-0.27686393 0.0056357239 -0.38999999 4284900966
-0.2758463 0.0056357239 -0.38999999 4284900966
-0.27412403 0.0056212735 -0.389 4284966759
-0.27310902 0.0056212735 -0.389 4284900966
-0.27279347 0.0056357239 -0.38999999 4284835173
-0.27107903 0.0056212735 -0.389 4284966759
-0.27006403 0.0056212735 -0.389 4284900966
-0.26904902 0.0056212735 -0.389 4284966759
-0.26803401 0.0056212735 -0.389 4284900966
-0.267019 0.0056212735 -0.389 4284900966
-0.266004 0.0056212735 -0.389 4284835173
-0.26498902 0.0056212735 -0.389 4284900966
-0.26397401 0.0056212735 -0.389 4284900966
-0.262959 0.0056212735 -0.389 4284966759
-0.261944 0.0056212735 -0.389 4284900966
-0.26092899 0.0056212735 -0.389 4285032552
-0.25991401 0.0056212735 -0.389 4285032552
-0.258899 0.0056212735 -0.389 4285032552
-0.257884 0.0056212735 -0.389 4285032552
-0.25686899 0.0056212735 -0.389 4285295724
-0.25585398 0.0056212735 -0.389 4285164138
-0.25483897 0.0056212735 -0.389 4285032552
-0.253824 0.0056212735 -0.389 4285164138
-0.25280899 0.0056212735 -0.389 4285032552
-0.25179398 0.0056212735 -0.389 4285164138
-0.25077897 0.0056212735 -0.389 4285164138
-0.24976398 0.0056212735 -0.389 4285098345
-0.24874897 0.0056212735 -0.389 4285164138
-0.24671897 0.0056212735 -0.389 4285098345
-0.24570397 0.0056212735 -0.389 4284966759
-0.24468897 0.0056212735 -0.389 4285164138
-0.24367397 0.0056212735 -0.389 4285229931
-0.24265896 0.0056212735 -0.389 4285427310
-0.24164397 0.0056212735 -0.389 4285295724
-0.24062896 0.0056212735 -0.389 4285295724
-0.23961395 0.0056212735 -0.389 4285427310
-0.23859896 0.0056212735 -0.389 4285427310
-0.23758395 0.0056212735 -0.389 4285427310
-0.23717709 0.0056357239 -0.38999999 4285295724
-0.23615947 0.0056357239 -0.38999999 4285493103
-0.23514187 0.0056357239 -0.38999999 4285427310
-0.23412426 0.0056357239 -0.38999999 4285295724
-0.23310664 0.0056357239 -0.38999999 4285361517
-0.23208903 0.0056357239 -0.38999999 4285558896
-0.23107143 0.0056357239 -0.38999999 4285361517
-0.2306437 0.0056501748 -0.391 4285295724
-0.22962348 0.0056501748 -0.391 4285295724
-0.22860326 0.0056501748 -0.391 4285427310
-0.22758304 0.0056501748 -0.391 4285624689
-0.22656281 0.0056501748 -0.391 4285756275
-0.2255426 0.0056501748 -0.391 4285887861
-0.22452238 0.0056501748 -0.391 4285756275
-0.22350216 0.0056501748 -0.391 4286019447
-0.22305094 0.0056646252 -0.39199999 4286085240
-0.22156908 0.0056790761 -0.39300001 4286282619
-0.22007675 0.0056935265 -0.39399999 4286677377
-0.21960469 0.0057079769 -0.39500001 4286677377
-0.21857403 0.0057079769 -0.39500001 4286611584
-0.21809411 0.0057224273 -0.396 4286611584
-0.21760897 0.0057368781 -0.39700001 4286545791
-0.2165731 0.0057368781 -0.39700001 4286611584
-0.21608013 0.0057513285 -0.398 4286874756
-0.21504165 0.0057513285 -0.398 4286743170
-0.21454085 0.0057657789 -0.39899999 4286743170
-0.34274131 0.0050315778 -0.42500001 4285953654
-0.34082854 0.0050197388 -0.42399999 4285953654
-0.33892098 0.0050078998 -0.42300001 4285953654
-0.33781728 0.0050078998 -0.42300001 4285953654
-0.33591753 0.0049960609 -0.42199999 4285953654
-0.33481643 0.0049960609 -0.42199999 4286216826
-0.33371532 0.0049960609 -0.42199999 4286348412
-0.33261421 0.0049960609 -0.42199999 4286348412
-0.33151311 0.0049960609 -0.42199999 4286216826
-0.30026898 0.0046172123 -0.38999999 4285953654
-0.29925138 0.0046172123 -0.38999999 4284374622
-0.29823378 0.0046172123 -0.38999999 4284243036
-0.29721615 0.0046172123 -0.38999999 4283782485
-0.29619855 0.0046172123 -0.38999999 4284111450
-0.29518092 0.0046172123 -0.38999999 4284374622
-0.29416332 0.0046172123 -0.38999999 4284637794
-0.29314572 0.0046172123 -0.38999999 4284835173
-0.29212809 0.0046172123 -0.38999999 4284966759
-0.29111049 0.0046172123 -0.38999999 4284900966
-0.29009289 0.0046172123 -0.38999999 4285032552
-0.28907526 0.0046172123 -0.38999999 4285098345
-0.28805766 0.0046172123 -0.38999999 4285032552
-0.28704005 0.0046172123 -0.38999999 4284900966
-0.28602242 0.0046172123 -0.38999999 4284966759
-0.28500482 0.0046172123 -0.38999999 4284900966
-0.28398719 0.0046172123 -0.38999999 4284900966
-0.28296959 0.0046172123 -0.38999999 4285032552
-0.28195199 0.0046172123 -0.38999999 4284900966
-0.28093436 0.0046172123 -0.38999999 4284835173
-0.27991676 0.0046172123 -0.38999999 4284900966
-0.27889916 0.0046172123 -0.38999999 4284900966
-0.27788153 0.0046172123 -0.38999999 4284900966
-0.27686393 0.0046172123 -0.38999999 4284835173
-0.2758463 0.0046172123 -0.38999999 4284835173
-0.2748287 0.0046172123 -0.38999999 4284900966
-0.2738111 0.0046172123 -0.38999999 4284900966
-0.27279347 0.0046172123 -0.38999999 4284900966
-0.27107903 0.0046053734 -0.389 4284835173
-0.27006403 0.0046053734 -0.389 4284769380
-0.26904902 0.0046053734 -0.389 4284900966
-0.26803401 0.0046053734 -0.389 4285032552
-0.267019 0.0046053734 -0.389 4285032552
-0.26668781 0.0046172123 -0.38999999 4284900966
-0.26567021 0.0046172123 -0.38999999 4284966759
-0.26397401 0.0046053734 -0.389 4284835173
-0.262959 0.0046053734 -0.389 4284966759
-0.261944 0.0046053734 -0.389 4285032552
-0.26092899 0.0046053734 -0.389 4285164138
-0.25991401 0.0046053734 -0.389 4285098345
-0.258899 0.0046053734 -0.389 4285032552
-0.257884 0.0046053734 -0.389 4285032552
-0.25686899 0.0046053734 -0.389 4285164138
-0.25585398 0.0046053734 -0.389 4285164138
