# .PCD v0.7 - Point Cloud Data file format
VERSION 0.7
FIELDS x y z rgb
SIZE 4 4 4 4
TYPE F F F U
COUNT 1 1 1 1
WIDTH 68
HEIGHT 1
VIEWPOINT 0 0 0 1 0 0 0
POINTS 68
DATA ascii
-0.15270424 0.0024318916 0.20930554 4291348680
-0.11901947 -0.023279818 0.21486402 4291348680
-0.15747596 -0.018864002 0.21077466 4291348680
-0.10900245 -0.051612396 0.21975549 4291348680
-0.16013624 0.01514791 0.21928933 4291348680
-0.17504492 -0.021706941 0.22471677 4291348680
-0.14441299 -0.024527667 0.2251368 4291348680
-0.13936706 0.0091117723 0.23016296 4291348680
-0.11377332 0.026143184 0.233365 4291348680
-0.18061762 0.001892515 0.23746151 4291348680
-0.08834672 -0.065458827 0.24436282 4291348680
-0.1640005 -0.024900045 0.24473761 4291348680
-0.1519587 -0.066034548 0.24821323 4291348680
-0.15957838 0.0096961223 0.25009635 4291348680
-0.073698021 -0.070146948 0.25981939 4291348680
-0.15188241 0.025917703 0.25773978 4291348680
-0.052672189 -0.072657265 0.27756914 4291348680
-0.17934035 -0.032329768 0.28257102 4291348680
-0.064037979 0.01506527 0.28467506 4291348680
-0.10763185 -0.077390559 0.2877031 4291348680
-0.17042047 -0.065610133 0.28670913 4291348680
-0.17609666 -0.047307964 0.28675228 4291348680
-0.17900506 -0.017765386 0.28736424 4291348680
-0.063025668 -0.0017619014 0.28770426 4291348680
-0.034257505 -0.075925536 0.29433772 4291348680
-0.16711035 0.01669381 0.29712084 4291348680
-0.045031033 0.0095079029 0.30058908 4291348680
-0.047569681 -0.0031056863 0.30776551 4291348680
-0.14077319 -0.075793192 0.31144837 4291348680
-0.033043921 0.0067718634 0.31277427 4291348680
-0.12892964 -0.079794087 0.31941265 4291348680
-0.0030533434 -0.081455931 0.32368416 4291348680
-0.027674008 -0.0081221517 0.32766342 4291348680
-0.017686848 0.002777901 0.32716146 4291348680
0.005637798 -0.086536646 0.3341656 4291348680
-0.12085348 -0.080442742 0.33088979 4291348680
-0.01414678 -0.014161397 0.33728504 4291348680
-0.1256509 0.0055162632 0.34012443 4291348680
-0.042477999 -0.09435048 0.35267895 4291348680
0.026114281 -0.091412455 0.35419613 4291348680
-0.096026577 -0.085859627 0.35601217 4291348680
-0.10999334 -0.044325236 0.35896903 4291348680
-0.11045561 0.00095405243 0.35576859 4291348680
0.026121428 -0.009139698 0.36750534 4291348680
-0.096236557 0.00048286852 0.36558378 4291348680
-0.018120462 -0.10024982 0.37489033 4291348680
-0.089404412 -0.047830552 0.37964332 4291348680
-0.071402416 -0.090998903 0.3811838 4291348680
-0.082196563 -0.0085651092 0.38555834 4291348680
0.065205403 -0.090966724 0.39552304 4291348680
0.066859551 -0.062041365 0.39721954 4291348680
-0.07143572 -0.056314971 0.39625347 4291348680
0.056648459 -0.10209703 0.40160406 4291348680
0.067552477 -0.04760015 0.40199769 4291348680
0.067055918 -0.027748646 0.40239131 4291348680
-0.062873371 -0.01192297 0.40317169 4291348680
-0.040722143 -0.10064197 0.4062461 4291348680
-0.04849916 -0.06234552 0.41810971 4291348680
-0.020398837 -0.10504549 0.42750117 4291348680
0.042020664 -0.057539068 0.42621529 4291348680
-0.036679428 -0.014778713 0.42501432 4291348680
0.029790256 -0.074156493 0.43483227 4291348680
0.011862566 -0.11157817 0.44242823 4291348680
-0.015668193 -0.019734899 0.4455781 4291348680
0.026873225 -0.019349935 0.44684309 4291348680
0.0011708032 -0.1004414 0.45528626 4291348680
0.0024602944 -0.076876551 0.46059048 4291348680
0.016054219 -0.023504833 0.46067011 4291348680
