# .PCD v0.7 - Point Cloud Data file format
VERSION 0.7
FIELDS x y z rgb
SIZE 4 4 4 4
TYPE F F F U
COUNT 1 1 1 1
WIDTH 1015
HEIGHT 1
VIEWPOINT 0 0 0 1 0 0 0
POINTS 1015
DATA ascii
-0.13233489 0.025914842 0.26274088 4291348680
-0.12773888 0.025850639 0.26233581 4291348680
-0.12284159 0.025675358 0.2621983 4291348680
-0.11744656 0.02539831 0.26210177 4291348680
-0.11337915 0.025281232 0.26137006 4291348680
-0.10997222 0.025040146 0.26142791 4291348680
-0.080071993 -0.075013451 0.26988986 4291348680
-0.076677553 -0.075119793 0.26939553 4291348680
-0.073400214 -0.075210065 0.26979271 4291348680
-0.16097547 -0.070426211 0.26799434 4291348680
-0.15780617 -0.070918508 0.26780012 4291348680
-0.15236346 -0.071259797 0.26794827 4291348680
-0.14755 -0.071439445 0.26761904 4291348680
-0.14267434 -0.071715884 0.26771757 4291348680
-0.13754971 -0.07189279 0.26730931 4291348680
-0.13198896 -0.072174177 0.26737812 4291348680
-0.12753238 -0.07231953 0.2670629 4291348680
-0.1228568 -0.07259845 0.26733828 4291348680
-0.11757197 -0.07298135 0.26811153 4291348680
-0.11239672 -0.073216431 0.26811731 4291348680
-0.10753994 -0.073242567 0.26719001 4291348680
-0.10262119 -0.073497258 0.26733908 4291348680
-0.097293518 -0.073788419 0.26756036 4291348680
-0.092634775 -0.074022815 0.26770476 4291348680
-0.087926656 -0.074180722 0.26746333 4291348680
-0.082230002 -0.074497774 0.2678588 4291348680
-0.077844776 -0.0744716 0.26709616 4291348680
-0.072265789 -0.074044608 0.2672179 4291348680
-0.067389719 -0.072532445 0.26720983 4291348680
-0.063159473 -0.071534105 0.26876503 4291348680
-0.16627228 -0.065680586 0.2694656 4291348680
-0.16315468 -0.068558902 0.26721972 4291348680
-0.065556414 -0.069607966 0.2650494 4291348680
-0.06181122 -0.067915507 0.2668826 4291348680
-0.058841899 -0.066944331 0.26883397 4291348680
-0.16724749 -0.062667578 0.26786447 4291348680
-0.16498815 -0.064535074 0.26507321 4291348680
-0.060540795 -0.062596396 0.26605743 4291348680
-0.0583588 -0.062828809 0.26814809 4291348680
-0.17059684 -0.056056708 0.26862207 4291348680
-0.16916634 -0.058193587 0.26726523 4291348680
-0.061097536 -0.057451699 0.26589715 4291348680
-0.058640707 -0.057857238 0.26827535 4291348680
-0.17164411 -0.052427348 0.26769754 4291348680
-0.061328407 -0.052502342 0.26669094 4291348680
-0.059064053 -0.053011373 0.26886201 4291348680
-0.17321484 -0.047329046 0.26747617 4291348680
-0.065618545 -0.045210864 0.26610392 4291348680
-0.062933236 -0.04759286 0.26768613 4291348680
-0.05988472 -0.049821246 0.26933241 4291348680
-0.17531234 -0.041000519 0.26921853 4291348680
-0.17426671 -0.042908892 0.26735556 4291348680
-0.066899322 -0.04228235 0.26748157 4291348680
-0.064578839 -0.044226166 0.26962566 4291348680
-0.17560266 -0.037808795 0.26852524 4291348680
-0.17464988 -0.038407404 0.2660746 4291348680
-0.070551001 -0.035780232 0.26671687 4291348680
-0.068964407 -0.038457491 0.26812294 4291348680
-0.17590374 -0.032512963 0.26759616 4291348680
-0.17492247 -0.033859 0.26519603 4291348680
-0.071681857 -0.032727756 0.26708245 4291348680
-0.1761487 -0.027722148 0.26749068 4291348680
-0.073249757 -0.027673153 0.2677713 4291348680
-0.17618303 -0.022389226 0.26770103 4291348680
-0.074075773 -0.022452705 0.26744401 4291348680
-0.1758422 -0.01752883 0.26765686 4291348680
-0.17488749 -0.016265241 0.26524502 4291348680
-0.073817514 -0.016926643 0.26768607 4291348680
-0.17558262 -0.013091514 0.26852614 4291348680
-0.17469865 -0.012501637 0.26620564 4291348680
-0.072342888 -0.012264741 0.26713824 4291348680
-0.17524372 -0.009967735 0.26913035 4291348680
-0.17424522 -0.0071902997 0.2679233 4291348680
-0.070693709 -0.0079114921 0.26723638 4291348680
-0.069427565 -0.0060900929 0.26849729 4291348680
-0.17313288 -0.0029632649 0.26785108 4291348680
-0.070819996 -0.0019002625 0.26575196 4291348680
-0.068646811 -0.0027453313 0.26824436 4291348680
-0.17132942 0.002562545 0.26782089 4291348680
-0.16975005 0.0048297625 0.26567638 4291348680
-0.071003251 0.0022891152 0.26619712 4291348680
-0.06878525 0.0021218641 0.26842821 4291348680
-0.17030849 0.0059379973 0.26868367 4291348680
-0.16893993 0.0078380238 0.26709464 4291348680
-0.071794137 0.0075408034 0.26644373 4291348680
-0.069095038 0.0069136322 0.26904881 4291348680
-0.1667086 0.012638765 0.26745954 4291348680
-0.076355517 0.014410483 0.26562113 4291348680
-0.072375432 0.011486106 0.26781169 4291348680
-0.069579668 0.010032495 0.26983947 4291348680
-0.16545294 0.015729573 0.26878345 4291348680
-0.16358848 0.017645335 0.26687899 4291348680
-0.081079781 0.0189595 0.26732895 4291348680
-0.077772014 0.016829468 0.2674897 4291348680
-0.074809626 0.015215603 0.26866463 4291348680
-0.16121842 0.021502193 0.26761422 4291348680
-0.1585732 0.023917098 0.26709825 4291348680
-0.14713292 0.024918411 0.2699962 4291348680
-0.14251418 0.024948901 0.26923889 4291348680
-0.13643339 0.024764635 0.26915914 4291348680
-0.13268216 0.024735056 0.26864851 4291348680
-0.12732796 0.024565689 0.26849967 4291348680
-0.12238092 0.024451526 0.26805007 4291348680
-0.11772693 0.024394857 0.26716486 4291348680
-0.11231352 0.024058539 0.26719052 4291348680
-0.10718393 0.023724122 0.26717025 4291348680
-0.10278953 0.023356473 0.26758829 4291348680
-0.097831205 0.023068139 0.26749516 4291348680
-0.092403024 0.022597795 0.26737544 4291348680
-0.087815121 0.021644548 0.26770282 4291348680
-0.084356442 0.020617871 0.26802421 4291348680
-0.15606922 0.025253123 0.26730788 4291348680
-0.15272065 0.025550047 0.26768568 4291348680
-0.14770846 0.025526805 0.26707968 4291348680
-0.14277102 0.025377911 0.2671622 4291348680
-0.13744438 0.025356364 0.26639998 4291348680
-0.13217713 0.025176505 0.26639372 4291348680
-0.12833135 0.025179496 0.26573938 4291348680
-0.12323856 0.025043899 0.26541916 4291348680
-0.10058029 -0.075036988 0.27439341 4291348680
-0.097390905 -0.075146914 0.27424461 4291348680
-0.092574008 -0.075453706 0.27472475 4291348680
-0.087410957 -0.07531938 0.27294692 4291348680
-0.082041532 -0.075494051 0.27263734 4291348680
-0.077979721 -0.075745203 0.27301773 4291348680
-0.071918227 -0.07570035 0.27201328 4291348680
-0.067335263 -0.07577718 0.27345711 4291348680
-0.063673131 -0.075342625 0.27390406 4291348680
-0.16225851 -0.071181856 0.27251828 4291348680
-0.15749738 -0.072019674 0.27305201 4291348680
-0.15272786 -0.072200261 0.27270296 4291348680
-0.14773138 -0.072407626 0.27242669 4291348680
-0.14237814 -0.072551802 0.27178022 4291348680
-0.13729896 -0.072840877 0.27193022 4291348680
-0.13227014 -0.073134355 0.27213082 4291348680
-0.12809964 -0.07337857 0.27235579 4291348680
-0.12267254 -0.073613144 0.27221635 4291348680
-0.11771995 -0.07389912 0.27254462 4291348680
-0.11250094 -0.074135929 0.27259737 4291348680
-0.10772183 -0.074479461 0.27325493 4291348680
-0.10213825 -0.074546658 0.27234548 4291348680
-0.097199932 -0.074716136 0.27207273 4291348680
-0.092862114 -0.07469967 0.2710593 4291348680
-0.087588996 -0.074803665 0.27044734 4291348680
-0.082762003 -0.074944377 0.27011803 4291348680
-0.067483202 -0.074698076 0.27076671 4291348680
-0.062527262 -0.073381022 0.27151439 4291348680
-0.05770921 -0.072037265 0.2732946 4291348680
-0.05443871 -0.070755713 0.27457777 4291348680
-0.16653253 -0.067240879 0.27262187 4291348680
-0.16497104 -0.069637515 0.27270031 4291348680
-0.056671605 -0.068142682 0.27121344 4291348680
-0.053119674 -0.066796571 0.27372536 4291348680
-0.17053692 -0.061032973 0.2744371 4291348680
-0.16861919 -0.063125081 0.2719419 4291348680
-0.055715717 -0.06192527 0.27064216 4291348680
-0.052970782 -0.062478945 0.27329123 4291348680
-0.17141858 -0.05744718 0.27238309 4291348680
-0.056115687 -0.057882719 0.27078909 4291348680
-0.053514473 -0.057847634 0.27340326 4291348680
-0.17331992 -0.052559223 0.27246997 4291348680
-0.056431931 -0.052386079 0.27181885 4291348680
-0.054116659 -0.052556038 0.27420136 4291348680
-0.17545488 -0.046350524 0.27349922 4291348680
-0.1744758 -0.047973622 0.27164257 4291348680
-0.06112409 -0.046329215 0.27167296 4291348680
-0.058661871 -0.048017841 0.272724 4291348680
-0.17607649 -0.042477939 0.27268475 4291348680
-0.17488073 -0.044648722 0.27020258 4291348680
-0.065912575 -0.040791042 0.27251345 4291348680
-0.063423336 -0.043189138 0.27286828 4291348680
-0.17675851 -0.037453737 0.27207348 4291348680
-0.068669513 -0.037192449 0.27205434 4291348680
-0.17747743 -0.032456368 0.27271488 4291348680
-0.07134188 -0.032634456 0.27221751 4291348680
-0.17760053 -0.027542854 0.27221116 4291348680
-0.073523313 -0.027528318 0.27240059 4291348680
-0.1776059 -0.022255152 0.27243704 4291348680
-0.075305715 -0.021109086 0.27363425 4291348680
-0.074615419 -0.023010306 0.27165702 4291348680
-0.17732239 -0.01768521 0.27266094 4291348680
-0.075314254 -0.0172702 0.2737239 4291348680
-0.074622408 -0.017141234 0.27123946 4291348680
-0.17670895 -0.01310372 0.272553 4291348680
-0.075135484 -0.014623234 0.27445796 4291348680
-0.073460929 -0.012352765 0.2719124 4291348680
-0.17565356 -0.0076881591 0.27238396 4291348680
-0.17478749 -0.0056014396 0.27092105 4291348680
-0.071149975 -0.0081052464 0.27267408 4291348680
-0.069546029 -0.0064145806 0.27214563 4291348680
-0.17511396 -0.0042511467 0.27356464 4291348680
-0.17413726 -0.00199216 0.27231994 4291348680
-0.066766508 -0.0027622576 0.27162746 4291348680
-0.064120151 -0.00089004822 0.27392983 4291348680
-0.17262724 0.0025712668 0.27229863 4291348680
-0.066199206 0.0023723645 0.27109236 4291348680
-0.063653715 0.0019290553 0.2736817 4291348680
-0.17093571 0.0071540345 0.27278751 4291348680
-0.16967607 0.0090594916 0.27117538 4291348680
-0.067040145 0.0078914938 0.27159318 4291348680
-0.064116172 0.0070112627 0.27432013 4291348680
-0.16854343 0.012122178 0.27261135 4291348680
-0.071019769 0.014185488 0.27234164 4291348680
-0.068181835 0.012089078 0.27330977 4291348680
-0.1662167 0.016471116 0.27298191 4291348680
-0.16439204 0.018863551 0.27172524 4291348680
-0.080637641 0.019777641 0.27225843 4291348680
-0.077123314 0.018254668 0.27229574 4291348680
-0.073277205 0.016398815 0.2732296 4291348680
-0.16169883 0.022560408 0.27253062 4291348680
-0.15746179 0.024462368 0.27271453 4291348680
-0.15244581 0.024520226 0.27285475 4291348680
-0.14738137 0.024335204 0.2728312 4291348680
-0.1417546 0.02430292 0.27215835 4291348680
-0.13739188 0.024064573 0.27264926 4291348680
-0.13257872 0.02385507 0.27281311 4291348680
-0.1275043 0.023780731 0.27217734 4291348680
-0.12229977 0.023372071 0.27299091 4291348680
-0.11816005 0.023259973 0.2725791 4291348680
-0.11222017 0.022918791 0.2725904 4291348680
-0.10766918 0.022645347 0.27254316 4291348680
-0.10230242 0.022284374 0.27264521 4291348680
-0.097909637 0.02204958 0.27249876 4291348680
-0.092683025 0.021781286 0.27237365 4291348680
-0.087498441 0.021327181 0.27266881 4291348680
-0.083019152 0.020511741 0.27338699 4291348680
-0.15585765 0.025106259 0.27033085 4291348680
-0.15284909 0.025060762 0.27028775 4291348680
-0.12241026 -0.075071603 0.27947879 4291348680
-0.11686043 -0.075223543 0.27888814 4291348680
-0.11264807 -0.075388134 0.27878249 4291348680
-0.10735769 -0.075487435 0.27810395 4291348680
-0.10286481 -0.075525343 0.27730075 4291348680
-0.097204432 -0.075921737 0.27803856 4291348680
-0.09275829 -0.075974286 0.27734667 4291348680
-0.087870672 -0.0763271 0.27805671 4291348680
-0.082071438 -0.076456152 0.27750561 4291348680
-0.077343382 -0.076741874 0.27796009 4291348680
-0.072724223 -0.076861173 0.27764142 4291348680
-0.067209512 -0.076936953 0.27731946 4291348680
-0.062500022 -0.076611951 0.27743521 4291348680
-0.057802822 -0.076070234 0.27846691 4291348680
-0.054368749 -0.075454935 0.27945673 4291348680
-0.16571094 -0.070743613 0.27779105 4291348680
-0.16308342 -0.07212764 0.27746367 4291348680
-0.1573247 -0.072832085 0.2770645 4291348680
-0.15278322 -0.073159091 0.27754909 4291348680
-0.14695403 -0.073513687 0.27786249 4291348680
-0.14291294 -0.073621251 0.27738532 4291348680
-0.13732874 -0.073836677 0.27704784 4291348680
-0.13224873 -0.074126206 0.27716997 4291348680
-0.12767702 -0.074453838 0.27767003 4291348680
-0.12312423 -0.074543566 0.27696735 4291348680
-0.11768185 -0.074701779 0.27647182 4291348680
-0.11318737 -0.074778363 0.27588236 4291348680
-0.10852991 -0.074907042 0.27550647 4291348680
-0.056730457 -0.07411176 0.27617079 4291348680
-0.052672189 -0.072657265 0.27756914 4291348680
-0.048944168 -0.071633905 0.27954113 4291348680
-0.16772339 -0.06780424 0.27740723 4291348680
-0.051233649 -0.068402819 0.27592602 4291348680
-0.048311282 -0.067410968 0.2781854 4291348680
-0.17112181 -0.062115625 0.27829137 4291348680
-0.1694805 -0.063955046 0.27576911 4291348680
-0.050658096 -0.062157825 0.27559438 4291348680
-0.047889948 -0.062265895 0.27828482 4291348680
-0.17302793 -0.057221226 0.27748266 4291348680
-0.051043052 -0.05714782 0.27602154 4291348680
-0.048694313 -0.057456672 0.27833229 4291348680
-0.17527819 -0.050995134 0.27802485 4291348680
-0.17434762 -0.053006083 0.27674153 4291348680
-0.051798336 -0.052061353 0.2770617 4291348680
-0.048845492 -0.053674608 0.27928704 4291348680
-0.17619368 -0.047480747 0.27782586 4291348680
-0.056578085 -0.046649452 0.27717462 4291348680
-0.053638253 -0.048557896 0.27842093 4291348680
-0.17725165 -0.042598844 0.27761805 4291348680
-0.061808422 -0.041399591 0.27765912 4291348680
-0.058438059 -0.044166196 0.27820221 4291348680
-0.17813562 -0.037348539 0.27779058 4291348680
-0.066677168 -0.036933985 0.27755952 4291348680
-0.064143881 -0.039171677 0.27779058 4291348680
-0.17865467 -0.032492455 0.2779147 4291348680
-0.071285084 -0.031459957 0.27765194 4291348680
-0.069393873 -0.03399631 0.27750945 4291348680
-0.17878766 -0.026945647 0.27741426 4291348680
-0.073671982 -0.027475441 0.27740639 4291348680
-0.17872813 -0.022480005 0.2775161 4291348680
-0.07580895 -0.022219637 0.27766329 4291348680
-0.07488203 -0.024618056 0.27614936 4291348680
-0.1784548 -0.017207036 0.27823228 4291348680
-0.076459795 -0.017590366 0.27757975 4291348680
-0.1777119 -0.012629407 0.27763796 4291348680
-0.076049581 -0.013400568 0.27767694 4291348680
-0.074500069 -0.011029628 0.27613536 4291348680
-0.1766398 -0.0076552639 0.27697095 4291348680
-0.075257704 -0.0088412762 0.279661 4291348680
-0.072476551 -0.0074295411 0.27726662 4291348680
-0.069161952 -0.0051014852 0.27617198 4291348680
-0.17536613 -0.0020931 0.27798131 4291348680
-0.17460294 -0.00070593803 0.27604985 4291348680
-0.070340164 -0.0045806458 0.27956039 4291348680
-0.067623734 -0.0037660436 0.2779229 4291348680
-0.063081689 -0.0017312921 0.27736211 4291348680
-0.059447579 -0.00076041295 0.27961785 4291348680
-0.17502515 2.8103957e-05 0.27983508 4291348680
-0.17382553 0.0024264525 0.27763411 4291348680
-0.061129797 0.001766766 0.27656347 4291348680
-0.058901574 0.0023599698 0.27865782 4291348680
-0.17188798 0.0073310682 0.27765366 4291348680
-0.062058955 0.0077523231 0.27695528 4291348680
-0.058856502 0.005997011 0.27945426 4291348680
-0.17037344 0.010807253 0.27806136 4291348680
-0.16898577 0.013150042 0.27701148 4291348680
-0.066791043 0.013596658 0.27713895 4291348680
-0.063438907 0.011080646 0.27801818 4291348680
-0.16662003 0.017482022 0.2776514 4291348680
-0.16484241 0.019733077 0.27573612 4291348680
-0.08659862 0.019907342 0.27980807 4291348680
-0.081742056 0.019871889 0.2783069 4291348680
-0.07740017 0.019118514 0.27753988 4291348680
-0.072494082 0.017302409 0.27757868 4291348680
-0.0685331 0.015498936 0.27848256 4291348680
-0.16504085 0.020323951 0.27897221 4291348680
-0.16289794 0.022078384 0.27701721 4291348680
-0.15760313 0.023799414 0.27727595 4291348680
-0.15224388 0.02349571 0.27770171 4291348680
-0.14748085 0.023334462 0.27744567 4291348680
-0.1421492 0.023186605 0.27727383 4291348680
-0.13721618 0.023020703 0.27734706 4291348680
-0.13237287 0.022840211 0.27740157 4291348680
-0.12811176 0.02270738 0.27716804 4291348680
-0.12266371 0.022387313 0.27742487 4291348680
-0.11750531 0.022091474 0.2775498 4291348680
-0.11272595 0.021820102 0.27758372 4291348680
-0.10720044 0.021519132 0.27749953 4291348680
-0.10240863 0.021255074 0.27739677 4291348680
-0.09708789 0.02100559 0.27714911 4291348680
-0.092488021 0.020748124 0.27717993 4291348680
-0.087769188 0.020516885 0.27720317 4291348680
-0.083343193 0.020341832 0.27645403 4291348680
-0.14092061 -0.075062662 0.28439444 4291348680
-0.13712585 -0.075107723 0.28362274 4291348680
-0.13237941 -0.07525488 0.28309506 4291348680
-0.12719043 -0.075465187 0.28281125 4291348680
-0.12222371 -0.075617328 0.28225416 4291348680
-0.1173076 -0.075936131 0.28264162 4291348680
-0.11267991 -0.076166809 0.28268719 4291348680
-0.10751215 -0.076401487 0.28267881 4291348680
-0.10245702 -0.076636203 0.28273129 4291348680
-0.097281426 -0.076860927 0.28271687 4291348680
-0.091941759 -0.07703089 0.28241354 4291348680
-0.087970875 -0.077288121 0.28286561 4291348680
-0.082611844 -0.077409416 0.28239772 4291348680
-0.077547111 -0.077703081 0.28287143 4291348680
-0.072564483 -0.077986382 0.28330669 4291348680
-0.067363642 -0.078003585 0.28236476 4291348680
-0.062173918 -0.07817293 0.28250355 4291348680
-0.057549261 -0.077790365 0.28234822 4291348680
-0.051798616 -0.076475836 0.2826772 4291348680
-0.047760405 -0.075767033 0.28422076 4291348680
-0.16610631 -0.070997857 0.28265089 4291348680
-0.1624984 -0.072610937 0.28262275 4291348680
-0.15751691 -0.073695481 0.2826657 4291348680
-0.15265073 -0.074172169 0.28280163 4291348680
-0.14788535 -0.074270956 0.28207093 4291348680
-0.14260417 -0.0745226 0.28200293 4291348680
-0.13763532 -0.074664235 0.28138921 4291348680
-0.13318199 -0.074867904 0.2812801 4291348680
-0.12901671 -0.074903965 0.28034705 4291348680
-0.046855513 -0.072955176 0.28222588 4291348680
-0.043575745 -0.071603768 0.28396186 4291348680
-0.17048299 -0.065590248 0.28373954 4291348680
-0.16891387 -0.067689367 0.28260893 4291348680
-0.045629885 -0.067392416 0.28060004 4291348680
-0.042893734 -0.067618899 0.28315249 4291348680
-0.17165293 -0.062640712 0.28204596 4291348680
-0.045602035 -0.062346134 0.28054637 4291348680
-0.042854231 -0.062684655 0.28324419 4291348680
-0.17387959 -0.057449602 0.28237113 4291348680
-0.045679215 -0.0578648 0.28130504 4291348680
-0.043538559 -0.057569005 0.2835426 4291348680
-0.17554714 -0.052679114 0.28267205 4291348680
-0.17484741 -0.054298114 0.28114977 4291348680
-0.04746737 -0.052064717 0.28220457 4291348680
-0.044321783 -0.053643528 0.28438342 4291348680
-0.17691211 -0.047706589 0.28245276 4291348680
-0.052227907 -0.046865504 0.28266674 4291348680
-0.048913818 -0.049113765 0.28386897 4291348680
-0.17797354 -0.04277081 0.2826882 4291348680
-0.060462482 -0.0404182 0.28097194 4291348680
-0.057589885 -0.042138707 0.28234935 4291348680
-0.054021794 -0.044341318 0.2839331 4291348680
-0.17875506 -0.037943281 0.28257141 4291348680
-0.065581381 -0.035969678 0.28076893 4291348680
-0.062569097 -0.037431058 0.28269857 4291348680
-0.05963159 -0.039742406 0.28317788 4291348680
-0.17934035 -0.032329768 0.28257102 4291348680
-0.070533797 -0.030884812 0.28170344 4291348680
-0.068130918 -0.03258625 0.28265157 4291348680
-0.064780816 -0.034613036 0.28410208 4291348680
-0.17956719 -0.027390992 0.28258651 4291348680
-0.073048607 -0.027480993 0.28250623 4291348680
-0.17942114 -0.022128385 0.28246942 4291348680
-0.076401182 -0.022080595 0.2822766 4291348680
-0.074673928 -0.024904171 0.28482807 4291348680
-0.17908664 -0.017661646 0.28260463 4291348680
-0.077749431 -0.017067362 0.28186616 4291348680
-0.17829706 -0.012319423 0.28213444 4291348680
-0.078108691 -0.012275512 0.28258249 4291348680
-0.17727102 -0.0070655472 0.28246754 4291348680
-0.076992832 -0.0075970907 0.28293866 4291348680
-0.073899098 -0.005874122 0.28112641 4291348680
-0.17602493 -0.0023256578 0.2825059 4291348680
-0.07619366 -0.004632351 0.28415257 4291348680
-0.072259963 -0.0034218181 0.282877 4291348680
-0.067234106 -0.002595478 0.28222409 4291348680
-0.062201526 -0.0021453381 0.28300458 4291348680
-0.057673756 -0.0017259871 0.28273779 4291348680
-0.054405533 -0.0014258518 0.28412899 4291348680
-0.17516887 0.00032021845 0.28176165 4291348680
-0.17445463 0.002590518 0.28268579 4291348680
-0.056374256 0.0024385473 0.28125083 4291348680
-0.053999446 0.0026001465 0.28360948 4291348680
-0.17241158 0.0075884718 0.28223523 4291348680
-0.057218693 0.0079694828 0.28260106 4291348680
-0.054403424 0.0062790993 0.28453642 4291348680
-0.17058925 0.011530583 0.28217807 4291348680
-0.16956808 0.013551985 0.28247944 4291348680
-0.065648824 0.014637773 0.28078553 4291348680
-0.062434781 0.013172383 0.2826106 4291348680
-0.058914911 0.010928836 0.28353703 4291348680
-0.16741349 0.017314568 0.28262484 4291348680
-0.11050373 0.019957837 0.28467727 4291348680
-0.10713631 0.019822462 0.28444165 4291348680
-0.10226659 0.019724948 0.28374854 4291348680
-0.097023264 0.019499904 0.28353921 4291348680
-0.092311382 0.019584605 0.28227964 4291348680
-0.087652303 0.019325003 0.28258938 4291348680
-0.082319416 0.019084904 0.28284338 4291348680
-0.077651985 0.018852284 0.28263068 4291348680
-0.072333798 0.017897554 0.28212649 4291348680
-0.067593008 0.016183225 0.28253639 4291348680
-0.064037979 0.01506527 0.28467506 4291348680
-0.16525652 0.020519527 0.28232059 4291348680
-0.16271541 0.022080574 0.28222936 4291348680
-0.15746097 0.022824939 0.28209683 4291348680
-0.15197834 0.022471588 0.28235143 4291348680
-0.14715928 0.022228796 0.28235424 4291348680
-0.14211905 0.022008924 0.28238401 4291348680
-0.13745932 0.021647053 0.28322428 4291348680
-0.13281938 0.021761851 0.28210577 4291348680
-0.1275835 0.021285776 0.28322664 4291348680
-0.1225275 0.021296514 0.28209651 4291348680
-0.11788242 0.02090944 0.28261611 4291348680
-0.11269105 0.020508558 0.2830033 4291348680
-0.10703117 0.020420691 0.28204909 4291348680
-0.10262987 0.020337626 0.28138575 4291348680
-0.098253787 0.020292042 0.2805635 4291348680
-0.093831748 0.020127403 0.28026927 4291348680
-0.15160172 -0.075115949 0.28861177 4291348680
-0.14758649 -0.075516887 0.28867355 4291348680
-0.14237787 -0.075584061 0.28758785 4291348680
-0.13774012 -0.075849593 0.28773826 4291348680
-0.13239621 -0.076192245 0.28810596 4291348680
-0.12735954 -0.076386042 0.28774545 4291348680
-0.12220226 -0.07658495 0.28735253 4291348680
-0.11761637 -0.076878101 0.28764278 4291348680
-0.11206704 -0.0772027 0.28785399 4291348680
-0.10763185 -0.077390559 0.2877031 4291348680
-0.10267156 -0.077634431 0.2877667 4291348680
-0.09694799 -0.07784979 0.28756422 4291348680
-0.092573598 -0.07806056 0.2877 4291348680
-0.087232523 -0.078158841 0.28709272 4291348680
-0.082594879 -0.078477718 0.28777337 4291348680
-0.077950485 -0.078582399 0.28741527 4291348680
-0.071884349 -0.078875609 0.28769663 4291348680
-0.067605004 -0.079007193 0.28752738 4291348680
-0.062519908 -0.079227641 0.2876991 4291348680
-0.057846107 -0.079353631 0.28759643 4291348680
-0.052365392 -0.079147622 0.28775236 4291348680
-0.047633968 -0.077728517 0.2871947 4291348680
-0.043249626 -0.076438323 0.28810999 4291348680
-0.039426371 -0.075333886 0.28976715 4291348680
-0.16572942 -0.070640542 0.28573051 4291348680
-0.16260526 -0.071587667 0.28796718 4291348680
-0.15815558 -0.073538534 0.28779843 4291348680
-0.15294687 -0.07474602 0.28712225 4291348680
-0.14779975 -0.074897885 0.28535554 4291348680
-0.042359378 -0.073545627 0.28622532 4291348680
-0.038257547 -0.071926817 0.28862095 4291348680
-0.17042047 -0.065610133 0.28670913 4291348680
-0.16814533 -0.068166181 0.28693673 4291348680
-0.040295478 -0.067397371 0.28553143 4291348680
-0.037388101 -0.067472041 0.2882897 4291348680
-0.17164432 -0.062747389 0.28723443 4291348680
-0.16969641 -0.064087644 0.2897827 4291348680
-0.040813826 -0.061668195 0.2854839 4291348680
-0.038081165 -0.062732808 0.28806296 4291348680
-0.17291497 -0.057467811 0.28821903 4291348680
-0.041172542 -0.057509743 0.28599712 4291348680
-0.038581166 -0.057555191 0.28868768 4291348680
-0.17550115 -0.05183769 0.28601056 4291348680
-0.17369159 -0.053193431 0.28849488 4291348680
-0.045347448 -0.050865266 0.28612807 4291348680
-0.042801 -0.052428734 0.28751552 4291348680
-0.039780103 -0.053419642 0.2899954 4291348680
-0.17609666 -0.047307964 0.28675228 4291348680
-0.17439111 -0.047830746 0.28888452 4291348680
-0.051043499 -0.045561966 0.286172 4291348680
-0.047589943 -0.047893606 0.287415 4291348680
-0.044709139 -0.049519837 0.28889257 4291348680
-0.17641602 -0.042156525 0.28755891 4291348680
-0.1745574 -0.043735556 0.28950092 4291348680
-0.055560965 -0.040650155 0.28749043 4291348680
-0.052621938 -0.04296032 0.28797582 4291348680
-0.17696358 -0.037295073 0.28787398 4291348680
-0.061180554 -0.035991013 0.28701141 4291348680
-0.058307029 -0.038055979 0.28774568 4291348680
-0.054953091 -0.039788991 0.28970546 4291348680
-0.1780823 -0.032554906 0.2872875 4291348680
-0.066493683 -0.031608846 0.28672922 4291348680
-0.063486181 -0.033330299 0.28814378 4291348680
-0.17858374 -0.027796306 0.28742564 4291348680
-0.071729295 -0.026878912 0.28733179 4291348680
-0.067921348 -0.029344151 0.28861821 4291348680
-0.17872162 -0.022440212 0.28799173 4291348680
-0.076389588 -0.021776563 0.28704414 4291348680
-0.074302636 -0.024215246 0.28790584 4291348680
-0.17900506 -0.017765386 0.28736424 4291348680
-0.078763798 -0.017451026 0.28781927 4291348680
-0.1785869 -0.012365843 0.28720349 4291348680
-0.080710508 -0.012245303 0.28804299 4291348680
-0.079534598 -0.012693907 0.28550136 4291348680
-0.17776768 -0.0077222642 0.28806943 4291348680
-0.081620149 -0.0076285517 0.28843129 4291348680
-0.079047188 -0.0065447139 0.28568348 4291348680
-0.17648469 -0.0028014672 0.2873328 4291348680
-0.081503026 -0.0026642922 0.28885293 4291348680
-0.077376299 -0.0022903536 0.28653997 4291348680
-0.072188027 -0.00083208614 0.28639981 4291348680
-0.067510352 -0.0008338326 0.28692925 4291348680
-0.063025668 -0.0017619014 0.28770426 4291348680
-0.057850622 -0.0030909467 0.2873643 4291348680
-0.052552488 -0.0029056892 0.28787196 4291348680
-0.049030203 -0.0020436994 0.28889507 4291348680
-0.1753791 0.00072987215 0.28683892 4291348680
-0.17449993 0.0032493204 0.28754708 4291348680
-0.080789834 0.0011659029 0.28966224 4291348680
-0.077976108 0.001469016 0.28894705 4291348680
-0.072935164 0.0015817835 0.28897151 4291348680
-0.06867367 0.00069403258 0.28929007 4291348680
-0.051253732 0.0027725557 0.2864731 4291348680
-0.048899092 0.0024239391 0.28879592 4291348680
-0.17281041 0.007447314 0.28762478 4291348680
-0.055808872 0.0096756062 0.28587136 4291348680
-0.052760538 0.0083045727 0.28827259 4291348680
-0.17092746 0.011515402 0.28761035 4291348680
-0.16960971 0.014053725 0.28718561 4291348680
-0.061283108 0.014131873 0.28673226 4291348680
-0.057807647 0.012319158 0.2876054 4291348680
-0.054922186 0.01080346 0.28877503 4291348680
-0.16745092 0.017721821 0.28721327 4291348680
-0.13577515 0.019989733 0.28981629 4291348680
-0.13270538 0.019927289 0.28956836 4291348680
-0.12813838 0.019784648 0.28941149 4291348680
-0.12222221 0.019618079 0.28895596 4291348680
-0.11768858 0.019601019 0.28792313 4291348680
-0.11283352 0.019264624 0.28795728 4291348680
-0.10765417 0.018934315 0.28792021 4291348680
-0.10245804 0.018654434 0.2878167 4291348680
-0.097812541 0.018308882 0.28824022 4291348680
-0.092782252 0.018262031 0.28769687 4291348680
-0.08802665 0.018054612 0.28783685 4291348680
-0.082509845 0.017911885 0.28785107 4291348680
-0.078126535 0.01780122 0.2879588 4291348680
-0.072445422 0.01761522 0.28751761 4291348680
-0.068116993 0.016891722 0.28786558 4291348680
-0.063506447 0.015452153 0.28777233 4291348680
-0.16528143 0.020472197 0.28721741 4291348680
-0.16292088 0.021427546 0.2871846 4291348680
-0.15703027 0.021809066 0.28675383 4291348680
-0.15286499 0.021365289 0.28761661 4291348680
-0.14756969 0.021048497 0.28769994 4291348680
-0.14215223 0.020833217 0.28744954 4291348680
-0.13770202 0.020628881 0.28750554 4291348680
-0.13267043 0.020472478 0.28735891 4291348680
-0.12833692 0.020487977 0.28662565 4291348680
-0.12283183 0.020339396 0.28614596 4291348680
-0.11750206 0.020185521 0.28549683 4291348680
-0.07710281 -0.08006531 0.29470509 4291348680
-0.072136186 -0.08010605 0.29400232 4291348680
-0.067046851 -0.080324665 0.29418084 4291348680
-0.062814794 -0.080311313 0.29332805 4291348680
-0.057484515 -0.080418535 0.29292271 4291348680
-0.052412946 -0.080406889 0.2922321 4291348680
-0.048239145 -0.080526121 0.29306692 4291348680
-0.043841437 -0.080430403 0.29407775 4291348680
-0.15165091 -0.075173803 0.29278654 4291348680
-0.14744003 -0.076066598 0.29267436 4291348680
-0.14266305 -0.076490164 0.29251334 4291348680
-0.13755836 -0.076752864 0.29252961 4291348680
-0.13241218 -0.077187732 0.29346341 4291348680
-0.12719817 -0.077268094 0.29246658 4291348680
-0.1226269 -0.077527992 0.29255676 4291348680
-0.11793535 -0.077806175 0.29268169 4291348680
-0.11230389 -0.078095458 0.29261494 4291348680
-0.10763059 -0.078382835 0.29282594 4291348680
-0.10286101 -0.078491256 0.29215157 4291348680
-0.097580805 -0.078906469 0.29301599 4291348680
-0.092396922 -0.078935623 0.29202119 4291348680
-0.088000342 -0.079178616 0.29234144 4291348680
-0.082438789 -0.079403944 0.29239094 4291348680
-0.077444777 -0.079614803 0.2925117 4291348680
-0.07272926 -0.079653852 0.29184449 4291348680
-0.068120144 -0.079726934 0.29133242 4291348680
-0.062348224 -0.079833582 0.29076549 4291348680
-0.059253037 -0.079895467 0.29052755 4291348680
-0.052839655 -0.079961322 0.29022047 4291348680
-0.047063891 -0.079528257 0.29070902 4291348680
-0.042779576 -0.078827821 0.2916435 4291348680
-0.038140398 -0.07739912 0.29284316 4291348680
-0.034257505 -0.075925536 0.29433772 4291348680
-0.16122471 -0.07100331 0.29175428 4291348680
-0.15709157 -0.073004857 0.29265362 4291348680
-0.15373899 -0.074442796 0.29301772 4291348680
-0.036209859 -0.072829232 0.29083616 4291348680
-0.033014636 -0.072173245 0.29335862 4291348680
-0.16639592 -0.066633925 0.29141033 4291348680
-0.16350524 -0.068718649 0.29257163 4291348680
-0.035250414 -0.067821153 0.29037684 4291348680
-0.0328517 -0.067805752 0.29271162 4291348680
-0.1705482 -0.061188258 0.29030302 4291348680
-0.16766599 -0.06265381 0.29280952 4291348680
-0.035601776 -0.062421877 0.29063472 4291348680
-0.033252135 -0.063171536 0.29288289 4291348680
-0.17079489 -0.057548519 0.29092494 4291348680
-0.1686143 -0.057449337 0.29329887 4291348680
-0.036332857 -0.057126038 0.29127678 4291348680
-0.033665895 -0.05818624 0.29372334 4291348680
-0.17121869 -0.052133679 0.29154602 4291348680
-0.16911791 -0.051958773 0.29388839 4291348680
-0.041214317 -0.051101904 0.29126376 4291348680
-0.037927154 -0.053007651 0.29298323 4291348680
-0.17166035 -0.047881577 0.29192466 4291348680
-0.16938053 -0.047431145 0.29453057 4291348680
-0.045941398 -0.046649847 0.29150003 4291348680
-0.043219469 -0.048389643 0.29256383 4291348680
-0.17234676 -0.0425147 0.29221651 4291348680
-0.16986018 -0.04286534 0.29494825 4291348680
-0.051094644 -0.041721519 0.29204673 4291348680
-0.048614901 -0.043257397 0.29306275 4291348680
-0.17313579 -0.03770455 0.29226774 4291348680
-0.056825127 -0.036487047 0.29243127 4291348680
-0.053242087 -0.039011583 0.29338369 4291348680
-0.17551289 -0.032768846 0.2904337 4291348680
-0.17313752 -0.032166254 0.29324096 4291348680
-0.065720037 -0.030137297 0.29043394 4291348680
-0.062729336 -0.031663038 0.29213786 4291348680
-0.058880497 -0.034201898 0.29333302 4291348680
-0.17599963 -0.026969438 0.29091606 4291348680
-0.17365615 -0.027463425 0.2934745 4291348680
-0.070819922 -0.025800232 0.29087117 4291348680
-0.067507952 -0.027623728 0.29237592 4291348680
-0.064128868 -0.029567553 0.2937977 4291348680
-0.17610601 -0.022563154 0.29152116 4291348680
-0.17373985 -0.022141352 0.29424536 4291348680
-0.075731196 -0.02115096 0.29205772 4291348680
-0.073030949 -0.023206644 0.29252228 4291348680
-0.17659982 -0.017734103 0.29172447 4291348680
-0.17435248 -0.016703244 0.29439351 4291348680
-0.080331512 -0.015441792 0.29157376 4291348680
-0.077983871 -0.018352164 0.29311118 4291348680
-0.17695569 -0.012413735 0.29193524 4291348680
-0.17471127 -0.012827133 0.29457006 4291348680
-0.082305804 -0.012368736 0.29279071 4291348680
-0.1763346 -0.0074375798 0.29318434 4291348680
-0.085954621 -0.0056149373 0.2940242 4291348680
-0.084279865 -0.0078719314 0.29258451 4291348680
-0.050109994 -0.0050562602 0.29472694 4291348680
-0.047060609 -0.0051904013 0.29459152 4291348680
-0.17614916 -0.0020388549 0.29225594 4291348680
-0.086275585 -0.0022112071 0.29321235 4291348680
-0.083530627 -0.0014076099 0.29066664 4291348680
-0.062205445 -0.00075212319 0.29173279 4291348680
-0.057610717 -0.0028262353 0.29268572 4291348680
-0.052197278 -0.0044429894 0.29238003 4291348680
-0.047309957 -0.0035496016 0.2920036 4291348680
-0.043742429 -0.0020805183 0.29366109 4291348680
-0.17519988 0.0011318808 0.29286313 4291348680
-0.17420243 0.0039792731 0.29217651 4291348680
-0.087851107 0.002881624 0.29383215 4291348680
-0.083308205 0.0020475537 0.29120252 4291348680
-0.078075498 0.0040191803 0.29046762 4291348680
-0.071804054 0.0037204372 0.29147425 4291348680
-0.067213476 0.0024544219 0.29269317 4291348680
-0.064070225 0.0010670051 0.29335117 4291348680
-0.046602573 0.0032278206 0.29153851 4291348680
-0.043815922 0.001953071 0.29399866 4291348680
-0.17283292 0.0072683394 0.29265112 4291348680
-0.09048894 0.0086516198 0.29450417 4291348680
-0.08763656 0.0072535151 0.29342252 4291348680
-0.08244919 0.0077001522 0.29205015 4291348680
-0.077332214 0.0072329147 0.29193732 4291348680
-0.072935626 0.007015401 0.29337022 4291348680
-0.069919474 0.0058420389 0.29467055 4291348680
-0.050671753 0.0084927836 0.29106033 4291348680
-0.048174415 0.00710813 0.29264748 4291348680
-0.044731591 0.0053478396 0.29495484 4291348680
-0.17084354 0.011558863 0.29251599 4291348680
-0.16959862 0.014003637 0.29224023 4291348680
-0.095621273 0.014816167 0.29479024 4291348680
-0.092092611 0.012790375 0.2942065 4291348680
-0.088341892 0.011682842 0.29317328 4291348680
-0.082705632 0.012695096 0.292263 4291348680
-0.077698074 0.013058102 0.29296839 4291348680
-0.073750913 0.012864771 0.29442167 4291348680
-0.060392641 0.014878417 0.29180399 4291348680
-0.057107221 0.013665747 0.29294679 4291348680
-0.052453872 0.011023002 0.29276368 4291348680
-0.04980522 0.010120137 0.29474413 4291348680
-0.16732951 0.017599801 0.29283586 4291348680
-0.16415273 0.019801691 0.29464874 4291348680
-0.15192534 0.019812768 0.29453474 4291348680
-0.14777967 0.019734705 0.29369208 4291348680
-0.14278822 0.019494895 0.29348201 4291348680
-0.13727576 0.019409062 0.29255471 4291348680
-0.13213207 0.019331405 0.29189321 4291348680
-0.1275802 0.01903316 0.29226047 4291348680
-0.1224864 0.018669479 0.29271242 4291348680
-0.11757497 0.018429825 0.29249793 4291348680
-0.11250493 0.018009065 0.29271942 4291348680
-0.10708905 0.017460704 0.29323801 4291348680
-0.10272949 0.017443037 0.2922709 4291348680
-0.097032838 0.016859803 0.2926054 4291348680
-0.092726253 0.016591823 0.29191485 4291348680
-0.087936737 0.016376102 0.29121134 4291348680
-0.082726404 0.016520429 0.29073682 4291348680
-0.077251643 0.016087418 0.29178134 4291348680
-0.072723329 0.016159534 0.29275146 4291348680
-0.06793946 0.016436525 0.29227698 4291348680
-0.062688179 0.015593671 0.29276195 4291348680
-0.1654136 0.020038445 0.29075852 4291348680
-0.16273497 0.020646052 0.29247689 4291348680
-0.15687793 0.020595586 0.2923184 4291348680
-0.15284337 0.020404635 0.29201761 4291348680
-0.1479249 0.020279024 0.29125884 4291348680
-0.14236297 0.020099094 0.29068381 4291348680
-0.13807227 0.020025035 0.29007581 4291348680
-0.10044143 -0.080018394 0.2994411 4291348680
-0.096766219 -0.080109455 0.29897201 4291348680
-0.091802217 -0.080319993 0.29887363 4291348680
-0.087058365 -0.080487214 0.29871583 4291348680
-0.082070865 -0.080516882 0.29788163 4291348680
-0.077674814 -0.080510624 0.29703441 4291348680
-0.07245449 -0.080812708 0.29757977 4291348680
-0.067564599 -0.080998279 0.29762387 4291348680
-0.062783815 -0.081186987 0.29770792 4291348680
-0.057225466 -0.081369959 0.29766175 4291348680
-0.05288196 -0.081463091 0.29739386 4291348680
-0.048025578 -0.081707932 0.29772249 4291348680
-0.042348616 -0.081615031 0.29760489 4291348680
-0.037852567 -0.081155196 0.29834884 4291348680
-0.15091889 -0.075175427 0.29546654 4291348680
-0.14721137 -0.076107912 0.29723692 4291348680
-0.14250033 -0.077170953 0.29715338 4291348680
-0.13714565 -0.077728137 0.29768375 4291348680
-0.13239937 -0.078031071 0.29800966 4291348680
-0.1275069 -0.078154519 0.29735139 4291348680
-0.12249786 -0.07835526 0.29701474 4291348680
-0.11724471 -0.078785516 0.29777834 4291348680
-0.11233144 -0.078933127 0.29709852 4291348680
-0.10770864 -0.079259843 0.29749322 4291348680
-0.10291272 -0.079507768 0.29745054 4291348680
-0.0981429 -0.079706885 0.29723755 4291348680
-0.09272936 -0.079776905 0.29632637 4291348680
-0.087768339 -0.079868004 0.29576236 4291348680
-0.036291312 -0.079304308 0.29633197 4291348680
-0.032605268 -0.077578776 0.29710624 4291348680
-0.028412521 -0.075671479 0.29896098 4291348680
-0.15691473 -0.071263947 0.29732335 4291348680
-0.15321429 -0.073592827 0.29749167 4291348680
-0.030755853 -0.073252752 0.2957615 4291348680
-0.027988572 -0.072376043 0.29797301 4291348680
-0.16205737 -0.066487432 0.29676273 4291348680
-0.15900438 -0.068594486 0.29843873 4291348680
-0.030518699 -0.065990314 0.29517183 4291348680
-0.027812272 -0.067593053 0.29772571 4291348680
-0.16535941 -0.060770195 0.29602945 4291348680
-0.16328435 -0.062924996 0.29747051 4291348680
-0.030664312 -0.062790394 0.29559481 4291348680
-0.028336357 -0.062430311 0.29805896 4291348680
-0.16609238 -0.057452183 0.29598427 4291348680
-0.16344883 -0.057672292 0.29874417 4291348680
-0.031757213 -0.056687672 0.29672268 4291348680
-0.029030811 -0.058055717 0.29875889 4291348680
-0.16660078 -0.052591164 0.29648042 4291348680
-0.16432787 -0.052824397 0.29888123 4291348680
-0.036533512 -0.05146518 0.29692504 4291348680
-0.033696037 -0.053280678 0.29807541 4291348680
-0.16720054 -0.048242122 0.29676592 4291348680
-0.16448763 -0.048077345 0.29977623 4291348680
-0.041716825 -0.046622265 0.29726136 4291348680
-0.038788229 -0.048711352 0.29800576 4291348680
-0.17003636 -0.040368617 0.29524279 4291348680
-0.16765513 -0.042525984 0.29746658 4291348680
-0.050245285 -0.040236995 0.29560241 4291348680
-0.047182005 -0.041867316 0.29724589 4291348680
-0.043209486 -0.044139851 0.29907981 4291348680
-0.17052835 -0.036779702 0.29537743 4291348680
-0.16794857 -0.037882023 0.29805279 4291348680
-0.055289984 -0.035758663 0.29584739 4291348680
-0.052966293 -0.036997978 0.29709724 4291348680
-0.04920467 -0.039208837 0.29873356 4291348680
-0.17063196 -0.032808151 0.29595578 4291348680
-0.16876495 -0.03247666 0.29812059 4291348680
-0.060921784 -0.030818069 0.29626772 4291348680
-0.057616796 -0.032905392 0.29741177 4291348680
-0.05416574 -0.034500364 0.29962108 4291348680
-0.17134356 -0.027270304 0.29611346 4291348680
-0.16892186 -0.02740805 0.29880407 4291348680
-0.066331953 -0.026122862 0.29693052 4291348680
-0.062811054 -0.028649691 0.29743239 4291348680
-0.059870586 -0.029684668 0.29986581 4291348680
-0.17156151 -0.022029407 0.29668868 4291348680
-0.16905653 -0.022177042 0.29946545 4291348680
-0.072067581 -0.021828894 0.29675281 4291348680
-0.068473235 -0.024120938 0.29760697 4291348680
-0.17184222 -0.017385745 0.29708359 4291348680
-0.16932626 -0.018466208 0.29972643 4291348680
-0.080272757 -0.015434295 0.29614595 4291348680
-0.077671573 -0.017065668 0.2978678 4291348680
-0.074010327 -0.019378835 0.29887459 4291348680
-0.17247388 -0.012274926 0.2971428 4291348680
-0.085041501 -0.010131977 0.2996181 4291348680
-0.082758315 -0.012539483 0.29749122 4291348680
-0.17252897 -0.0077568921 0.29773733 4291348680
-0.086956456 -0.0071065691 0.29780769 4291348680
-0.047798801 -0.0056222389 0.29770491 4291348680
-0.042554326 -0.0059117889 0.29821861 4291348680
-0.03921587 -0.0051982477 0.29884622 4291348680
-0.17523146 -0.0022259534 0.29515961 4291348680
-0.172775 -0.0027082316 0.29818034 4291348680
-0.091028631 -0.00097411824 0.29836512 4291348680
-0.088749275 -0.0028369694 0.29662102 4291348680
-0.056970026 -0.0013740394 0.29749125 4291348680
-0.052588612 -0.0040139677 0.29761454 4291348680
-0.041210402 -0.0021892695 0.29612026 4291348680
-0.038315777 -0.0022393917 0.29873019 4291348680
-0.17318262 0.0028959822 0.29770324 4291348680
-0.095011927 0.0041358429 0.29990026 4291348680
-0.092073709 0.0026264228 0.2975145 4291348680
-0.0898 0.0010856211 0.29581457 4291348680
-0.065859661 0.0041557495 0.29647145 4291348680
-0.062368948 0.0024380146 0.29772282 4291348680
-0.059460402 0.00087433058 0.29860246 4291348680
-0.04180748 0.0027663514 0.29659945 4291348680
-0.039075226 0.001592088 0.29892313 4291348680
-0.17242633 0.0072165295 0.29721496 4291348680
-0.096570447 0.0085047809 0.29886329 4291348680
-0.092937343 0.0072419005 0.29644066 4291348680
-0.07066299 0.0083674155 0.29590124 4291348680
-0.067913577 0.0071043079 0.29773825 4291348680
-0.064255118 0.005252603 0.29993778 4291348680
-0.046499811 0.0087398198 0.29704124 4291348680
-0.043646876 0.0068637654 0.2980023 4291348680
-0.17075682 0.01101514 0.29707494 4291348680
-0.16926485 0.013588096 0.2978195 4291348680
-0.10156626 0.013907533 0.29931808 4291348680
-0.097831003 0.012557296 0.29752141 4291348680
-0.093657099 0.011211805 0.29544058 4291348680
-0.071119837 0.012161801 0.29638141 4291348680
-0.067839839 0.013326648 0.29854921 4291348680
-0.062736414 0.01481922 0.29940313 4291348680
-0.058047235 0.014445275 0.29705489 4291348680
-0.052340116 0.012435206 0.29726174 4291348680
-0.048970796 0.010983167 0.29815972 4291348680
-0.16711035 0.01669381 0.29712084 4291348680
-0.16284649 0.018575231 0.29805797 4291348680
-0.15764444 0.019390799 0.29752579 4291348680
-0.15270844 0.019289162 0.29729107 4291348680
-0.14761135 0.018893313 0.29767874 4291348680
-0.14288433 0.018617116 0.29755592 4291348680
-0.13812859 0.018362096 0.29737762 4291348680
-0.13219918 0.018100647 0.29701999 4291348680
-0.12696429 0.017667769 0.29760623 4291348680
-0.12314007 0.017475398 0.2974886 4291348680
-0.1171883 0.017115943 0.29745463 4291348680
-0.11260936 0.016864141 0.29714724 4291348680
-0.10754078 0.016350435 0.29755074 4291348680
-0.10256094 0.016037926 0.29677352 4291348680
-0.098396167 0.015343081 0.29573977 4291348680
-0.06702859 0.015557216 0.29636538 4291348680
-0.062698409 0.015301513 0.29692262 4291348680
-0.1607215 0.020058367 0.29525241 4291348680
-0.15805621 0.020043766 0.29517224 4291348680
-0.11606994 -0.080019496 0.30419394 4291348680
-0.11187928 -0.080264971 0.30421999 4291348680
-0.10746156 -0.080326051 0.30319056 4291348680
-0.1025792 -0.080404915 0.30212107 4291348680
-0.097876847 -0.080725804 0.30249077 4291348680
-0.092196308 -0.081021629 0.30255878 4291348680
-0.087825872 -0.08125256 0.30273822 4291348680
-0.083005995 -0.081492931 0.30291644 4291348680
-0.077253111 -0.0817388 0.30300415 4291348680
-0.072499067 -0.081798114 0.3024092 4291348680
-0.067455061 -0.082022212 0.30259982 4291348680
-0.062401287 -0.082238294 0.30273816 4291348680
-0.057329673 -0.082333624 0.30226529 4291348680
-0.052513063 -0.082502365 0.30214819 4291348680
-0.047571197 -0.082703047 0.30200458 4291348680
-0.043332979 -0.083096467 0.30280647 4291348680
-0.038032088 -0.082839511 0.3021338 4291348680
-0.03202612 -0.08169169 0.30251199 4291348680
-0.028733516 -0.081095964 0.30364415 4291348680
-0.14649642 -0.075820729 0.30182591 4291348680
-0.14225681 -0.077254817 0.30249804 4291348680
-0.13753942 -0.078377284 0.30280551 4291348680
-0.13271974 -0.078800216 0.3022902 4291348680
-0.126644 -0.079070032 0.30206963 4291348680
-0.12245877 -0.079275414 0.30201545 4291348680
-0.11809354 -0.079566933 0.30230176 4291348680
-0.1123724 -0.079752594 0.3015717 4291348680
-0.1077902 -0.079850167 0.30069757 4291348680
-0.03082265 -0.079652704 0.30043462 4291348680
-0.026799278 -0.077820137 0.30182645 4291348680
-0.023627691 -0.07682275 0.30373549 4291348680
-0.1553666 -0.070857957 0.30022928 4291348680
-0.15187086 -0.072318807 0.30235714 4291348680
-0.14899279 -0.073862933 0.30349186 4291348680
-0.025522728 -0.072594479 0.30025524 4291348680
-0.022274278 -0.072322555 0.30327362 4291348680
-0.15682358 -0.067029864 0.30236536 4291348680
-0.15439714 -0.06832131 0.30419961 4291348680
-0.025284052 -0.067725845 0.30023324 4291348680
-0.02307497 -0.068015635 0.302468 4291348680
-0.16047697 -0.061914515 0.30084065 4291348680
-0.15825541 -0.06223369 0.30309537 4291348680
-0.025855947 -0.062305294 0.30063137 4291348680
-0.023470594 -0.062478479 0.30305898 4291348680
-0.16118236 -0.056978259 0.30129713 4291348680
-0.15874049 -0.057880796 0.30365881 4291348680
-0.02704273 -0.057042748 0.30196005 4291348680
-0.023593895 -0.059088912 0.30419731 4291348680
-0.16172975 -0.052239735 0.30180809 4291348680
-0.1588185 -0.053112239 0.30472502 4291348680
-0.035460923 -0.050337322 0.30000147 4291348680
-0.032044929 -0.052006904 0.30206302 4291348680
-0.02941962 -0.053861607 0.30281425 4291348680
-0.16244598 -0.047485679 0.30213231 4291348680
-0.15979312 -0.048511926 0.30476469 4291348680
-0.040068861 -0.045974862 0.30047104 4291348680
-0.036999162 -0.047375053 0.30242819 4291348680
-0.034411274 -0.049096495 0.30324593 4291348680
-0.16522795 -0.04127663 0.30041173 4291348680
-0.16284925 -0.042705458 0.30272558 4291348680
-0.045678742 -0.04100021 0.30070645 4291348680
-0.042944051 -0.042386197 0.30223855 4291348680
-0.039320685 -0.044799518 0.3033109 4291348680
-0.16584164 -0.037381377 0.30050719 4291348680
-0.16346061 -0.037546743 0.3031075 4291348680
-0.051283855 -0.035767827 0.3015666 4291348680
-0.047884881 -0.037836894 0.30285895 4291348680
-0.044468034 -0.039925866 0.30412835 4291348680
-0.16589524 -0.033189725 0.30121079 4291348680
-0.16385722 -0.031955674 0.30367577 4291348680
-0.056439269 -0.031213896 0.30211434 4291348680
-0.052498154 -0.033670958 0.30345979 4291348680
-0.16630821 -0.027340265 0.30172214 4291348680
-0.16406669 -0.027160365 0.30424437 4291348680
-0.065196209 -0.025118789 0.30057856 4291348680
-0.062077396 -0.026603252 0.3023999 4291348680
-0.057894871 -0.029361239 0.30337369 4291348680
-0.16673765 -0.02298017 0.30193144 4291348680
-0.1646809 -0.02306211 0.30420047 4291348680
-0.071213283 -0.020500615 0.30083361 4291348680
-0.067332856 -0.022506956 0.30264381 4291348680
-0.064258359 -0.024489453 0.30327079 4291348680
-0.16734275 -0.017554617 0.3020691 4291348680
-0.16463479 -0.019699365 0.30475038 4291348680
-0.076686203 -0.015974563 0.30212802 4291348680
-0.072982386 -0.018608512 0.30213791 4291348680
-0.16745651 -0.012575191 0.30264178 4291348680
-0.085136347 -0.010012802 0.30126846 4291348680
-0.082161345 -0.012150869 0.30238459 4291348680
-0.079127222 -0.013995712 0.30299735 4291348680
-0.17013668 -0.0070480271 0.30046305 4291348680
-0.16791536 -0.0076928539 0.3028127 4291348680
-0.090189599 -0.0051787742 0.30347708 4291348680
-0.087480821 -0.0075975363 0.30230212 4291348680
-0.046585869 -0.0058363318 0.30243117 4291348680
-0.043133382 -0.0067961086 0.30278504 4291348680
-0.037888128 -0.0066748476 0.30196002 4291348680
-0.03431752 -0.0064898771 0.30391851 4291348680
-0.17065649 -0.0021266697 0.30060595 4291348680
-0.16827232 -0.0030003374 0.30306435 4291348680
-0.092460893 -0.0019555611 0.30238217 4291348680
-0.089538433 -0.004742424 0.30001619 4291348680
-0.055542879 -0.00051034085 0.30129841 4291348680
-0.052348822 -0.001953451 0.30285498 4291348680
-0.048826847 -0.004212745 0.30321425 4291348680
-0.035877056 -0.0016263822 0.30119371 4291348680
-0.033302806 -0.0024194173 0.30370292 4291348680
-0.17095615 0.0022830877 0.30089372 4291348680
-0.16858897 0.0021735528 0.30340484 4291348680
-0.096623398 0.003434174 0.30308703 4291348680
-0.094321661 0.00083863514 0.30205536 4291348680
-0.06130914 0.0037394655 0.30154708 4291348680
-0.057636999 0.0016387907 0.30279028 4291348680
-0.054177392 0.00025921231 0.3049677 4291348680
-0.037252743 0.0034589884 0.30226746 4291348680
-0.034008637 0.0012431915 0.30428264 4291348680
-0.17077935 0.0073250351 0.30103409 4291348680
-0.16791385 0.0081703449 0.30379933 4291348680
-0.10113151 0.0086515984 0.3041091 4291348680
