# .PCD v0.7 - Point Cloud Data file format
VERSION 0.7
FIELDS x y z
SIZE 4 4 4
TYPE F F F
COUNT 1 1 1
WIDTH 686
HEIGHT 1
VIEWPOINT 0 0 0 1 0 0 0
POINTS 686
DATA ascii
-2.1004801 1.4648482 -2.5550001
-2.1004801 1.5916268 -2.5550001
-2.0938134 1.5916268 -2.5550001
-2.0914369 1.4651854 -2.5439999
-2.0914369 1.5648428 -2.5439999
-2.0914369 1.5714866 -2.5439999
-2.0847988 1.5748086 -2.5439999
-2.078161 1.5781305 -2.5439999
-2.0955474 1.5812322 -2.549
-2.0865045 1.468358 -2.5380001
-2.0798821 1.468358 -2.5380001
-2.0658708 1.4654652 -2.533
-2.0823936 1.4720803 -2.533
-2.0823936 1.5514615 -2.533
-2.0691752 1.5580766 -2.533
-2.076571 1.5644662 -2.5380001
-2.0749853 1.5450981 -2.5280001
-2.0601895 1.5447241 -2.5220001
-2.0512037 1.4592947 -2.5109999
-2.0634899 1.4643171 -2.5139999
-2.0405805 1.456389 -2.506
-2.0560863 1.4665462 -2.5009999
-2.0495605 1.4600147 -2.5009999
-2.053658 1.5283794 -2.506
-2.0364485 1.457164 -2.4849999
-2.0299647 1.4506743 -2.4849999
-2.0429325 1.4636538 -2.4849999
-2.0470433 1.5121185 -2.49
-2.034049 1.5186212 -2.49
-2.0282536 1.5030092 -2.4749999
-2.0153377 1.5094728 -2.4749999
-2.0136733 1.444558 -2.4690001
-2.0192392 1.4512849 -2.464
-2.029779 1.4606779 -2.4690001
-2.029779 1.4929178 -2.4690001
-2.0168946 1.4993657 -2.4690001
-1.9950364 1.4357817 -2.454
-2.0046411 1.445395 -2.454
-2.0174475 1.4582125 -2.454
-2.0174475 1.4774389 -2.454
-2.0069468 1.4488456 -2.4489999
-2.0133367 1.4648349 -2.4489999
-2.0069468 1.4808244 -2.4489999
-1.9941665 1.48722 -2.4489999
-1.9871635 1.4382658 -2.4365001
-1.9796598 1.4301903 -2.4389999
-1.9987518 1.4492992 -2.4389999
-1.9946544 1.4653978 -2.434
-1.9883034 1.4717544 -2.434
-1.9674848 1.4277251 -2.424
-1.9738097 1.4340556 -2.424
-1.9801346 1.4403859 -2.424
-1.7714146 1.5669948 -2.424
-1.9823618 1.4437323 -2.4189999
-1.9719657 1.4439003 -2.414
-1.9823618 1.4500496 -2.4189999
-1.97605 1.456367 -2.4189999
-1.9697382 1.4626844 -2.4189999
-1.7614489 1.5637624 -2.4189999
-1.9490241 1.4188901 -2.4089999
-1.9512515 1.4222234 -2.404
-1.9615954 1.4314727 -2.4089999
-1.9575242 1.4473363 -2.404
-1.9553097 1.462929 -2.4089999
-1.7227386 1.5384241 -2.4089999
-1.716453 1.5384241 -2.4089999
-1.7038815 1.5384241 -2.4089999
-1.6940724 1.5352312 -2.404
-1.7442538 1.5477877 -2.404
-1.7348447 1.5446485 -2.404
-1.7245368 1.5446707 -2.4056666
-1.7131701 1.5457395 -2.4073331
-1.7021133 1.5462515 -2.4064999
-1.6940724 1.5446485 -2.404
-1.6877998 1.5477877 -2.404
-1.7442538 1.5540658 -2.404
-1.7348447 1.5540658 -2.404
-1.7240872 1.5525362 -2.4064999
-1.7140735 1.5530461 -2.4056666
-1.7034814 1.5540658 -2.404
-1.9431348 1.4225595 -2.3940001
-1.9534527 1.4349282 -2.3989999
-1.9431348 1.4475678 -2.3940001
-1.6842893 1.5351706 -2.3989999
-1.6641215 1.5455173 -2.3940001
-1.6905489 1.5508335 -2.3989999
-1.6842893 1.5508335 -2.3989999
-1.6780297 1.5508335 -2.3989999
-1.9328429 1.4133493 -2.3889999
-1.9358298 1.4358972 -2.385
-1.9255614 1.4453181 -2.3800001
-1.6523345 1.544369 -2.3889999
-1.6461009 1.544369 -2.3889999
-1.9215161 1.4112693 -2.375
-1.5835377 1.377351 -2.3699999
-1.027041 0.94763196 -1.574
-0.98560715 0.94505489 -1.58
-1.027476 0.95625806 -1.5746666
-0.98394364 0.95375633 -1.5773333
-1.031148 0.96818501 -1.574
-1.027041 0.96407437 -1.574
-0.98534489 0.96551454 -1.573
-1.0298377 0.97106016 -1.572
-0.98346567 0.96982473 -1.5700001
-1.026999 0.97656709 -1.5676666
-0.98095995 0.97553062 -1.566
-0.97625011 0.97899747 -1.5650001
-1.025252 0.98308456 -1.5650001
-0.98253 0.98323834 -1.562
-0.97641778 0.98119998 -1.562
-0.78641057 0.90893358 -1.557
-0.77475834 0.90515429 -1.5539999
-0.76511335 0.90776598 -1.5549999
-0.7585392 0.90515435 -1.5539999
-0.79182577 0.9162789 -1.5556666
-0.78454804 0.91522837 -1.5573335
-0.77471864 0.91562057 -1.5580001
-0.76471955 0.91581655 -1.5583334
-0.7841295 0.92379618 -1.5555
-0.77551842 0.92628634 -1.5578573
-0.76504761 0.92435122 -1.559
-0.77373743 0.93463773 -1.5546666
-0.76476526 0.93450004 -1.5576
-0.76259398 0.94167709 -1.5539999
-0.7585392 0.94167709 -1.5539999
-0.96843946 0.97931552 -1.559
-1.0206661 0.98478925 -1.5580001
-1.0187008 0.98898578 -1.5549999
-0.98344749 0.98822212 -1.5569999
-0.97442669 0.98528373 -1.5555714
-0.96489465 0.98385715 -1.5546
-1.0326905 0.99625278 -1.5536666
-1.0254759 0.99415922 -1.5541999
-1.0160317 0.99689186 -1.5533999
-1.0055577 0.99817377 -1.5534999
-0.99663329 0.99397296 -1.5543332
-0.98560739 0.9913916 -1.554
-1.033916 1.0042145 -1.5549999
-1.0247869 1.0031992 -1.5549999
-1.0166721 1.0052297 -1.5549999
-1.0072601 1.0039368 -1.553
-0.75650305 0.8867498 -1.5443335
-0.76454091 0.89366895 -1.5470001
-0.7571187 0.89443868 -1.5483335
-0.76216125 0.90021807 -1.549
-0.78551084 0.92729157 -1.5452499
-0.78033972 0.93178862 -1.541
-0.77472925 0.93472254 -1.5458572
-0.76472765 0.94327861 -1.545
-0.75632358 0.94651169 -1.5453334
-0.75420403 0.95191073 -1.541
-0.97233188 0.98921508 -1.549
-0.96274477 0.98701519 -1.5476667
-0.9550876 0.98604852 -1.5458572
-0.94580871 0.98272997 -1.5420001
-0.99355102 0.9962945 -1.549
-0.98382157 0.99463928 -1.5480001
-0.97536057 0.99421012 -1.5441999
-0.96637136 0.9932543 -1.5427144
-0.95725799 0.99215502 -1.541
-0.93313277 0.99215502 -1.541
-0.99456149 1.0013511 -1.5490001
-0.98520428 1.0000582 -1.5470001
-0.78331697 0.93184823 -1.5358
-0.77510369 0.93579024 -1.5369999
-0.76671207 0.94454491 -1.5355713
-0.78028864 0.95697778 -1.533
-0.77362198 0.957645 -1.533
-0.76471061 0.95335633 -1.5349998
-0.75580662 0.95584285 -1.5390002
-0.78428859 0.96498489 -1.533
-0.77428859 0.96498489 -1.533
-0.76517498 0.96409923 -1.5347776
-0.75552475 0.9652434 -1.5384285
-0.77388859 0.97419298 -1.533
-0.7637887 0.97449327 -1.533
-0.75403881 0.9744556 -1.5356666
-0.7492649 0.97626567 -1.535
-0.94367152 0.98647445 -1.5363332
-0.93873143 0.98757005 -1.5369999
-0.76028866 0.98300076 -1.533
-0.75428867 0.98500252 -1.533
-0.74861407 0.98342651 -1.5336666
-0.95476794 0.99158406 -1.5369999
-0.94613636 0.99194241 -1.5359999
-0.93565065 0.99182296 -1.5363332
-0.92870277 0.99359369 -1.5369999
-0.83353823 0.99488658 -1.539
-0.82428855 0.99100786 -1.533
-0.75428867 0.99100786 -1.533
-0.74828863 0.99100786 -1.533
-0.78623176 0.92852575 -1.529
-0.78321034 0.93528342 -1.5270001
-0.77426308 0.93651193 -1.5289999
-0.78372407 0.94587696 -1.5280001
-0.77426308 0.94449806 -1.5290002
-0.78423703 0.95448083 -1.529
-0.77426308 0.95248431 -1.529
-0.79212797 0.96791041 -1.525
-0.78423703 0.96845663 -1.529
-0.77825266 0.96845663 -1.529
-0.8079145 0.97927827 -1.521
-0.79130739 0.97463232 -1.5215
-0.78498155 0.975191 -1.5258001
-0.77700073 0.9761222 -1.5285
-0.76628399 0.97644281 -1.529
-0.82213783 0.984429 -1.529
-0.81503648 0.9849413 -1.5256666
-0.80447567 0.98389685 -1.5220001
-0.79005545 0.98325044 -1.521
-0.7833997 0.98287517 -1.5235001
-0.77391404 0.98431194 -1.5274444
-0.76428914 0.98442894 -1.5290002
-0.75830489 0.98642552 -1.529
-0.80387956 0.97501534 -1.5190001
-0.79535818 0.97481698 -1.5190001
-0.79496181 0.98195755 -1.5190001
-0.4291392 -0.021084808 -0.52200001
-0.42422733 -0.022935914 -0.51766664
-0.41865337 -0.024046499 -0.51250005
-0.41460258 -0.026222326 -0.50612497
-0.40387115 -0.028161051 -0.49466667
-0.39805636 -0.027153216 -0.49200001
-0.40283179 -0.030029599 -0.49000001
-0.39465824 -0.031407248 -0.48277774
-0.38853008 -0.030734198 -0.48100001
-0.40073377 -0.029968312 -0.48899999
-0.39507371 -0.029516269 -0.48579997
-0.38848335 -0.029569961 -0.48250002
-0.39152211 -0.032970048 -0.477
-0.38649425 -0.033618528 -0.47566664
-0.37983802 -0.035015427 -0.47099999
-0.23215668 -0.011979518 -0.47459999
-0.22990473 -0.014104603 -0.47099999
-0.23234534 -0.0092819091 -0.47600001
-0.38168323 -0.035490472 -0.46650004
-0.22502352 -0.021028738 -0.461
-0.23055929 -0.014860391 -0.46900001
-0.22802958 -0.017764453 -0.46445453
-0.37446916 -0.036833774 -0.45550001
-0.36711934 -0.035565943 -0.45450002
-0.22629166 -0.021882819 -0.45655558
-0.22763829 -0.01943912 -0.45900002
-0.24014752 0.081897505 -0.45100001
-0.23607175 0.08313556 -0.4513334
-0.24161221 0.097689405 -0.4515385
-0.23735107 0.096832618 -0.45180002
-0.24258362 0.10546493 -0.45220816
-0.23785831 0.10419866 -0.45370376
-0.24230462 0.11446798 -0.45140541
-0.23868072 0.11456151 -0.4523913
-0.24324904 0.12549631 -0.45154542
-0.23922688 0.12524416 -0.45209092
-0.24292055 0.13485049 -0.45124498
-0.23950061 0.13283752 -0.45199999
-0.24362531 0.14417993 -0.45108175
-0.23950061 0.14228095 -0.45199999
-0.24331951 0.1554628 -0.45137501
-0.24367785 0.16081125 -0.45100001
-0.36239418 -0.04067355 -0.44541666
-0.35770291 -0.0407506 -0.44499999
-0.36356798 -0.03841766 -0.44721431
-0.35871798 -0.037049491 -0.44800001
-0.24074988 0.086972684 -0.44883326
-0.23716313 0.086815923 -0.44934487
-0.24119934 0.092261188 -0.44912502
-0.23739414 0.092554554 -0.44958815
-0.24359994 0.11684146 -0.44950002
-0.24467227 0.12185385 -0.44980001
-0.24587727 0.13734232 -0.44999996
-0.24591155 0.14761701 -0.4490833
-0.24657024 0.15422505 -0.44924
-0.24462275 0.16192403 -0.44842103
-0.36090443 -0.041808289 -0.43900001
-0.35743001 -0.041736864 -0.43824998
-0.21657582 -0.02575759 -0.43900001
-0.35268334 -0.04421702 -0.42899999
-0.34411231 -0.044215865 -0.42428002
-0.33497927 -0.042586703 -0.42199999
-0.32962903 -0.041743256 -0.421
-0.34201825 0.0051313876 -0.42472726
-0.33552691 0.0037668664 -0.42216676
-0.32907978 0.0027852817 -0.421
-0.3331328 -0.045867793 -0.41850001
-0.32590497 -0.043804057 -0.4158667
-0.33288595 -0.012069567 -0.41600007
-0.32510087 -0.011970396 -0.41521427
-0.31982732 -0.010775893 -0.414
-0.33210742 -0.0050042085 -0.4164139
-0.32534653 -0.0056550847 -0.41523236
-0.31982732 -0.006991731 -0.414
-0.33119166 0.00058425241 -0.41949999
-0.32853216 0.0014058952 -0.41925001
-0.26166809 0.076933905 -0.41100004
-0.25888488 0.076422796 -0.41100001
-0.26150927 0.084873334 -0.4114103
-0.25789857 0.082987815 -0.41161117
-0.26206362 0.095587775 -0.41158143
-0.25886324 0.096139148 -0.412
-0.26266903 0.10484301 -0.41161114
-0.25883394 0.10386654 -0.412
-0.26248777 0.11340202 -0.41156408
-0.25879809 0.11193628 -0.41199997
-0.26238808 0.13667376 -0.41100001
-0.26260257 0.14182585 -0.41100001
-0.32191226 -0.045752183 -0.40774998
-0.31386456 -0.043480344 -0.40499997
-0.30605108 -0.043212038 -0.40259999
-0.21322864 -0.033602979 -0.40426663
-0.20636922 -0.034841076 -0.40695739
-0.19830239 -0.035893198 -0.40266669
-0.2139466 -0.027474979 -0.40254167
-0.31027797 -0.0083846534 -0.403
-0.30950806 -0.0067890724 -0.40200001
-0.21666159 0.015194067 -0.40343246
-0.21539283 0.021671826 -0.4023636
-0.21804191 0.034393463 -0.40274999
-0.27092117 0.067545757 -0.4014
-0.26483122 0.065997444 -0.40422088
-0.25777569 0.065153159 -0.40478268
-0.27250615 0.075518385 -0.40389392
-0.26608464 0.074431866 -0.40801144
-0.2558926 0.075068519 -0.40947619
-0.27197874 0.084489278 -0.40271151
-0.26719916 0.085250467 -0.40710348
-0.25361922 0.08087673 -0.41
-0.27221602 0.095511995 -0.40281034
-0.2673454 0.094462663 -0.40732917
-0.27267411 0.10518678 -0.40334937
-0.26770213 0.10494332 -0.4082
-0.27293408 0.11472309 -0.40362778
-0.26749656 0.11514328 -0.40843081
-0.27192068 0.12497257 -0.4036285
-0.26583236 0.12510982 -0.40844232
-0.25858614 0.12599088 -0.40741178
-0.27255276 0.13494729 -0.40345669
-0.2669493 0.13509649 -0.4083662
-0.27150708 0.14276087 -0.40350002
-0.26649755 0.14520776 -0.40666667
-0.26516372 0.15013197 -0.40219998
-0.2616421 0.23658887 -0.40194997
-0.25832063 0.23714061 -0.405725
-0.2618289 0.24559397 -0.40202945
-0.25789297 0.24473654 -0.40649375
-0.26150286 0.25389388 -0.40283334
-0.25809664 0.25387517 -0.40604872
-0.31162366 -0.045330822 -0.39933333
-0.30425537 -0.04474983 -0.39958334
-0.29478315 -0.043088775 -0.39756253
-0.28505093 -0.04267082 -0.3946906
-0.275002 -0.042576563 -0.39315537
-0.26508099 -0.042464059 -0.39213341
-0.25442272 -0.042280488 -0.39192161
-0.24521132 -0.042674188 -0.39297721
-0.23461518 -0.042249247 -0.39206818
-0.22570002 -0.042024307 -0.39397302
-0.2150729 -0.041681617 -0.3950645
-0.2081738 -0.041483779 -0.39416668
-0.30026454 -0.031348951 -0.39399999
-0.29423246 -0.034535937 -0.39314282
-0.28509936 -0.034705501 -0.39158574
-0.27480671 -0.03464685 -0.39125508
-0.26490226 -0.03460592 -0.39132988
-0.25475559 -0.035024509 -0.39158574
-0.24543007 -0.035400625 -0.39153436
-0.23478431 -0.035314601 -0.39148825
-0.22476915 -0.034878347 -0.39353448
-0.21703634 -0.036098231 -0.39833823
-0.20712753 -0.039077319 -0.39675
-0.19656968 -0.036482163 -0.39950001
-0.3003962 -0.024634002 -0.3935
-0.29530966 -0.024966484 -0.39232856
-0.28530401 -0.025533359 -0.39100027
-0.2749455 -0.026489245 -0.39100012
-0.26505294 -0.027675563 -0.39099991
-0.25410879 -0.02889782 -0.391
-0.2486676 -0.028727634 -0.391
-0.23098378 -0.028727634 -0.391
-0.22406884 -0.025461653 -0.39172298
-0.21661197 -0.024194593 -0.39713949
-0.30052966 -0.017120652 -0.39200002
-0.29494128 -0.015261562 -0.39143258
-0.28869909 -0.017300779 -0.39099994
-0.2223576 -0.015683901 -0.39185977
-0.21594477 -0.015170787 -0.39632148
-0.29823333 -0.0083902674 -0.391
-0.22244877 -0.0046586576 -0.39201695
-0.21644713 -0.0052229743 -0.39713967
-0.30176762 0.0092970431 -0.391
-0.23098378 0.0071818591 -0.391
-0.22429346 0.0056964993 -0.3917883
-0.21722606 0.0049189953 -0.39701328
-0.30261561 0.011962571 -0.391
-0.22299574 0.015173569 -0.39227691
-0.21893108 0.01500489 -0.39726198
-0.3102209 0.027093759 -0.391
-0.30694166 0.027166694 -0.39099997
-0.22266838 0.024697391 -0.39275005
-0.21843591 0.024961499 -0.39755937
-0.31078228 0.034416769 -0.39300001
-0.30452803 0.034556489 -0.39123747
-0.22262873 0.035170563 -0.39375564
-0.21934049 0.035178091 -0.39882356
-0.30602667 0.041616395 -0.391
-0.27043229 0.049558464 -0.391
-0.26436767 0.049104638 -0.39099991
-0.25767955 0.049558464 -0.391
-0.22332251 0.045025099 -0.39353999
-0.21858624 0.045028999 -0.39853334
-0.30703273 0.055366106 -0.39099994
-0.281829 0.058329612 -0.39141175
-0.27427703 0.055704653 -0.3930122
-0.26530564 0.055174749 -0.39520004
-0.25528586 0.054798625 -0.39435288
-0.24745382 0.056414973 -0.39200002
-0.22294286 0.054770257 -0.39310265
-0.21898735 0.054141279 -0.39680001
-0.28261912 0.065227225 -0.3924776
-0.27548274 0.064837724 -0.39700845
-0.26686513 0.061268408 -0.3996667
-0.25467047 0.061096668 -0.39871427
-0.24712726 0.06119024 -0.39357144
-0.22396424 0.065119781 -0.39324465
-0.21915931 0.064721972 -0.39575002
-0.28303882 0.075371131 -0.3922424
-0.2772226 0.074903302 -0.39677656
-0.22380069 0.07467065 -0.39265215
-0.28351477 0.084947564 -0.39274994
-0.27687594 0.0850159 -0.39738643
-0.22481301 0.085056856 -0.39214289
-0.28350228 0.094946057 -0.39323336
-0.27730307 0.094564445 -0.39820591
-0.22483072 0.093828283 -0.39164704
-0.28287035 0.1050176 -0.39351049
-0.27826333 0.10450181 -0.39874542
-0.22415137 0.10377082 -0.391
-0.31634223 0.11082584 -0.391
-0.28254959 0.11472706 -0.3930887
-0.27804175 0.11564486 -0.39804688
-0.22557253 0.11650221 -0.39176664
-0.28323162 0.12499975 -0.3933579
-0.27721807 0.12470011 -0.39820275
-0.24771702 0.12258748 -0.396
-0.22731511 0.12372508 -0.39159992
-0.28317204 0.13491191 -0.39343306
-0.27795336 0.13522355 -0.39827698
-0.2267814 0.13329056 -0.39099997
-0.28242847 0.14270189 -0.39228562
-0.27546912 0.14529227 -0.39566419
-0.26795539 0.14890793 -0.39691672
-0.25615266 0.14887662 -0.39375001
-0.22656281 0.14962852 -0.391
-0.2726852 0.15067504 -0.39160004
-0.2649045 0.15057416 -0.39365622
-0.25862813 0.15056439 -0.39166668
-0.22816496 0.16650385 -0.39130002
-0.22837031 0.1744224 -0.39262497
-0.2306851 0.18813707 -0.39154547
-0.22923183 0.18548669 -0.39218751
-0.2306437 0.19098401 -0.391
-0.22949742 0.19192146 -0.391875
-0.23188066 0.20669499 -0.3928571
-0.22991125 0.20583242 -0.39500001
-0.23215285 0.21274045 -0.39388236
-0.2736308 0.22939339 -0.39120001
-0.26583967 0.22820605 -0.3915
-0.28266639 0.23673691 -0.3970454
-0.27445999 0.23593453 -0.39551514
-0.266213 0.23550582 -0.39793152
-0.28340253 0.24508052 -0.39766002
-0.27467629 0.24496052 -0.39626518
-0.26664844 0.24481474 -0.39850003
-0.28239185 0.25137636 -0.39700001
-0.2739397 0.2530503 -0.39641666
-0.26694876 0.25318652 -0.39825004
-0.2570205 -0.044271335 -0.38999999
-0.21494527 -0.043554489 -0.38966665
-0.25574851 -0.030266803 -0.38999999
-0.24233299 -0.030894883 -0.38999993
-0.23717709 -0.030812437 -0.38999993
-0.28220639 -0.021100201 -0.38999999
-0.27564281 -0.021965938 -0.39000005
-0.26482216 -0.024024561 -0.38999987
-0.25486118 -0.024571834 -0.38999975
-0.24468088 -0.024786562 -0.38997623
-0.23482032 -0.024744194 -0.38996565
-0.22795495 -0.022691622 -0.38999993
-0.29131404 -0.010864161 -0.38999999
-0.28410515 -0.014631182 -0.38999984
-0.27527514 -0.015316511 -0.38999969
-0.26516142 -0.01524376 -0.38999969
-0.25498524 -0.015243758 -0.38999969
-0.2448729 -0.015216921 -0.38928878
-0.2348478 -0.015224505 -0.38951802
-0.22678988 -0.014849813 -0.38999996
-0.30077779 -0.00047534471 -0.38999999
-0.29408342 -0.0046204343 -0.38998812
-0.28500488 -0.0050586453 -0.38999972
-0.2753374 -0.0050586448 -0.38999969
-0.26516142 -0.0050586443 -0.38999969
-0.25512114 -0.0052069775 -0.38994765
-0.24492805 -0.0049329209 -0.38911822
-0.23497468 -0.0050548478 -0.38972703
-0.22686137 -0.005547931 -0.38999999
-0.30026898 0.006144979 -0.38999999
-0.29461813 0.0050801588 -0.38998961
-0.28497282 0.0051254798 -0.38995531
-0.27502772 0.0051177088 -0.38955986
-0.26505622 0.0050261738 -0.38926074
-0.25536641 0.0052828374 -0.38906243
-0.24485008 0.0050299019 -0.38902995
-0.23511294 0.0051229298 -0.38981974
-0.22762282 0.0023538535 -0.38999993
-0.30123305 0.017321801 -0.38999993
-0.29454222 0.015203226 -0.38999972
-0.28462899 0.015336691 -0.38940647
-0.27463153 0.015272332 -0.38899997
-0.26498896 0.015272325 -0.38899997
-0.2552948 0.015269553 -0.38891998
-0.24482992 0.015249945 -0.38842022
-0.23477188 0.0152862 -0.38939077
-0.22754897 0.015429106 -0.39000013
-0.30322757 0.024553632 -0.38999996
-0.29487988 0.024969783 -0.38991743
-0.28456908 0.024935165 -0.38899997
-0.27470946 0.02493076 -0.38911107
-0.26498899 0.024923354 -0.38899997
-0.25534648 0.024923351 -0.38899997
-0.24486199 0.025002087 -0.38850018
-0.23468123 0.0249396 -0.38924232
-0.22731411 0.025222484 -0.39000013
-0.30043858 0.035851564 -0.38999999
-0.29498976 0.034640625 -0.38974422
-0.28494564 0.034430694 -0.38889474
-0.27478829 0.034681078 -0.38884765
-0.26512703 0.034708302 -0.38952109
-0.25520459 0.034496646 -0.38907287
-0.2450829 0.034648862 -0.38878578
-0.2346309 0.034558691 -0.38883969
-0.22781219 0.034393795 -0.38990256
-0.30295706 0.045607504 -0.38999996
-0.2948392 0.044835739 -0.38947245
-0.28475976 0.044730335 -0.38896996
-0.27490568 0.044781055 -0.3893899
-0.26518697 0.044040997 -0.38967881
-0.25487396 0.044562984 -0.38958222
-0.24490716 0.044626191 -0.38906449
-0.23451607 0.04473025 -0.38897276
-0.22823061 0.044466469 -0.38999999
-0.30301404 0.055069644 -0.38995835
-0.29483843 0.054892447 -0.38899997
-0.28555658 0.054571565 -0.38952208
-0.27751154 0.05170022 -0.38999996
-0.25040603 0.050450228 -0.38999999
-0.2431611 0.054074261 -0.38959268
-0.23445015 0.054811351 -0.38925713
-0.22767943 0.055203274 -0.3900001
-0.30458084 0.064938687 -0.38921908
-0.29474741 0.064976491 -0.38821727
-0.28743449 0.065306835 -0.38958615
-0.24114577 0.061857559 -0.38999996
-0.23440234 0.065160565 -0.38969675
-0.22864476 0.064631037 -0.38999993
-0.30491334 0.075240381 -0.38863757
-0.29473203 0.075342976 -0.38829577
-0.28770098 0.074392773 -0.38973334
-0.23323853 0.074864075 -0.38912162
-0.22818595 0.075385995 -0.38990632
-0.31066409 0.085151717 -0.38899997
-0.30568647 0.085255019 -0.38847506
-0.29469821 0.084974751 -0.3875083
-0.28835282 0.085378073 -0.38977149
-0.23386571 0.085141055 -0.38817462
-0.22890222 0.085484736 -0.38991657
-0.31147298 0.093783729 -0.38928571
-0.30528125 0.095277436 -0.38749418
-0.2945852 0.09514305 -0.38753235
-0.28817508 0.094502486 -0.38990918
-0.23397295 0.09555798 -0.3879635
-0.22787376 0.095403597 -0.38968083
-0.3128958 0.10541521 -0.38976932
-0.30466175 0.10510214 -0.38726908
-0.29431164 0.10484923 -0.38677135
-0.28811347 0.10535225 -0.38948977
-0.23344396 0.1053436 -0.38786945
-0.22725891 0.10500727 -0.3898727
-0.31261277 0.11476631 -0.38886499
-0.30463237 0.11508597 -0.38659754
-0.29434004 0.11504918 -0.38671449
-0.2878122 0.11497194 -0.38977352
-0.24088132 0.11691811 -0.38750002
-0.23455194 0.11541037 -0.38733962
-0.2282695 0.11345739 -0.38961115
-0.31135714 0.12635095 -0.38614291
-0.30496803 0.12491847 -0.38564438
-0.29498553 0.12492763 -0.385829
-0.28872547 0.12511 -0.38884994
-0.23401855 0.1252826 -0.38737521
-0.228697 0.12853611 -0.38999999
-0.3114996 0.13423224 -0.38600001
-0.30465767 0.13507988 -0.3852661
-0.29431352 0.13509499 -0.38624814
-0.28836814 0.1346561 -0.38971436
-0.24180949 0.13598537 -0.38721055
-0.23436078 0.13521595 -0.38726676
-0.2282169 0.13596556 -0.38988891
-0.31230506 0.14657067 -0.38574997
-0.30518097 0.14499244 -0.38471437
-0.29486024 0.14500938 -0.38494542
-0.28591877 0.14565919 -0.38788396
-0.27920899 0.14897613 -0.38929996
-0.25176084 0.14886865 -0.38770002
-0.24392807 0.14585832 -0.38540787
-0.23441115 0.14515688 -0.38618252
-0.2283233 0.14448507 -0.38975006
-0.31257474 0.15509349 -0.38533342
-0.30484101 0.15503754 -0.38427192
-0.29493329 0.15518084 -0.38391185
-0.2849392 0.15506244 -0.38441062
-0.27518722 0.15510215 -0.38606906
-0.26513445 0.15571775 -0.38654897
-0.25518543 0.15527551 -0.38562387
-0.24500163 0.15534046 -0.38417825
-0.23463114 0.15511069 -0.38614714
-0.22844328 0.15402475 -0.38982761
-0.313665 0.16469553 -0.38644058
-0.30472699 0.16531114 -0.38378483
-0.29530355 0.16516159 -0.38302016
-0.28541213 0.16507605 -0.38325223
-0.2751354 0.16509429 -0.38305986
-0.26536793 0.16522862 -0.38331312
-0.25543815 0.16521926 -0.38334978
-0.24523889 0.1651189 -0.3832058
-0.23472349 0.16500218 -0.3863472
-0.2290362 0.16401425 -0.38999999
-0.31317091 0.17490852 -0.38378727
-0.30500883 0.17489959 -0.38263622
-0.29494703 0.17481455 -0.38243988
-0.2848658 0.17475162 -0.38229993
-0.27467322 0.17461655 -0.382
-0.26474038 0.17463887 -0.38204998
-0.25481161 0.1746657 -0.38210994
-0.24522954 0.17481859 -0.38271856
-0.23518963 0.17512353 -0.38618615
-0.2290362 0.17929193 -0.38999999
-0.31302106 0.18491834 -0.38311535
-0.30458346 0.18459737 -0.38201001
-0.29460797 0.18459259 -0.382
-0.28454655 0.18473795 -0.38197088
-0.27478743 0.18493313 -0.38190654
-0.26483604 0.18498318 -0.38183638
-0.25473848 0.18459272 -0.382
-0.2452094 0.18467535 -0.38210222
-0.23553616 0.18485075 -0.38596877
-0.31194848 0.19413988 -0.38218606
-0.30448213 0.19468686 -0.38186413
-0.29468858 0.19485234 -0.38163891
-0.28486857 0.19494697 -0.38118833
-0.27496195 0.19502024 -0.3810398
-0.26485831 0.1948777 -0.38104832
-0.25493583 0.19468527 -0.3812547
-0.24481894 0.19461815 -0.38199008
-0.23484854 0.19478092 -0.38586605
-0.31085485 0.20045486 -0.382
-0.30379704 0.20341197 -0.38125002
-0.29473361 0.20486619 -0.38100019
-0.28488964 0.20500474 -0.38100022
-0.27494842 0.20500469 -0.38100022
-0.26500705 0.20500474 -0.38100022
-0.2550658 0.20500463 -0.38100022
-0.24534364 0.2045576 -0.38166323
-0.23612858 0.20482995 -0.38569722
-0.30083141 0.21066567 -0.38185716
-0.29398215 0.21262138 -0.38144174
-0.28469846 0.21388316 -0.38100013
-0.27494487 0.21464717 -0.38110766
-0.26577359 0.21462435 -0.38126773
-0.2548829 0.2146676 -0.38106537
-0.245462 0.21423878 -0.38144588
-0.23654778 0.21441619 -0.38593805
-0.27470779 0.22340278 -0.3851026
-0.26665437 0.22343095 -0.38611543
-0.25524133 0.22043464 -0.382
-0.23857892 0.2210865 -0.3865
-0.26175645 0.21358898 -0.38000005
-0.25984967 0.21389434 -0.38
