# .PCD v0.7 - Point Cloud Data file format
VERSION 0.7
FIELDS x y z
SIZE 4 4 4
TYPE F F F
COUNT 1 1 1
WIDTH 686
HEIGHT 1
VIEWPOINT 0 0 0 1 0 0 0
POINTS 686
DATA ascii
-1.5957234 0.90527856 -1.4381349
-1.539291 0.93682605 -1.5471898
-1.5362244 0.93090779 -1.547315
-1.5829622 0.901595 -1.4329891
-1.5386021 0.92639363 -1.5187143
-1.5356448 0.92804688 -1.5244293
-1.5311127 0.92298079 -1.5274115
-1.5265807 0.91791487 -1.5303936
-1.537039 0.93218452 -1.5352833
-1.5746715 0.90032965 -1.4327532
-1.5716255 0.89445084 -1.4328775
-1.5626266 0.88322926 -1.4281042
-1.5672822 0.89954323 -1.4334842
-1.5319476 0.91929638 -1.5017678
-1.5229228 0.90920806 -1.5077063
-1.5273221 0.91542685 -1.5156119
-1.5275309 0.91307294 -1.493885
-1.5162818 0.90216911 -1.4907835
-1.541724 0.87719458 -1.4118601
-1.5474446 0.88818908 -1.4174786
-1.5342896 0.86897755 -1.4070121
-1.5330591 0.88720644 -1.41291
-1.5329647 0.8797881 -1.4074142
-1.5082601 0.8985008 -1.4686927
-1.5159094 0.87363601 -1.3970544
-1.5158157 0.86626518 -1.3915936
-1.5160034 0.88100696 -1.4025152
-1.5001628 0.8947795 -1.4466753
-1.4912912 0.88486224 -1.452513
-1.4840503 0.88164234 -1.4315482
-1.475232 0.87178493 -1.4373506
-1.4987519 0.85647798 -1.3784846
-1.4944763 0.86502957 -1.3816185
-1.4989849 0.87478662 -1.3920485
-1.4846342 0.88280916 -1.4197812
-1.4758373 0.87297583 -1.4255697
-1.4825613 0.84355927 -1.363641
-1.4827003 0.85447776 -1.37173
-1.4828856 0.8690359 -1.3825151
-1.4743274 0.87382019 -1.3990537
-1.4783833 0.85932004 -1.3721068
-1.4742053 0.86897123 -1.3857408
-1.4641488 0.86727762 -1.3996148
-1.4554231 0.85752356 -1.4053564
-1.4643892 0.84396642 -1.3570074
-1.4664528 0.8343274 -1.3514758
-1.4667289 0.85603106 -1.3675548
-1.4538369 0.85833621 -1.3789316
-1.448086 0.85428011 -1.3845187
-1.4504255 0.82871574 -1.3419397
-1.4505169 0.83590579 -1.3472663
-1.4506085 0.84309578 -1.3525929
-1.2982441 0.68931413 -1.4654208
-1.4463018 0.84784234 -1.3528816
-1.4376036 0.84059167 -1.3506734
-1.4434898 0.84941435 -1.3583157
-1.4377744 0.84538317 -1.3638684
-1.432059 0.84135199 -1.3694212
-1.2912571 0.68159962 -1.4602795
-1.434342 0.81593883 -1.3270421
-1.4300414 0.82068223 -1.3273196
-1.4345238 0.83022976 -1.3376296
-1.4217484 0.83249962 -1.3488039
-1.4176304 0.83247745 -1.3648063
-1.2770469 0.64480335 -1.4341141
-1.2741556 0.63922328 -1.4342321
-1.268373 0.62806326 -1.4344682
-1.2614408 0.62049741 -1.4293579
-1.2789342 0.6681695 -1.4392166
-1.2760035 0.65903556 -1.4366931
-1.2725327 0.64924496 -1.4377551
-1.2681088 0.63877499 -1.4397371
-1.2621546 0.62940961 -1.4399606
-1.2572489 0.62284076 -1.4374586
-1.2529664 0.61805367 -1.4402766
-1.2761396 0.66973174 -1.4446172
-1.2718116 0.66137898 -1.4447938
-1.2694647 0.65048051 -1.4449539
-1.2639916 0.64204055 -1.445156
-1.257385 0.63353693 -1.4453827
-1.4184754 0.8174336 -1.3226651
-1.4215572 0.82773441 -1.3356589
-1.4073435 0.82365662 -1.3441772
-1.2531264 0.61373436 -1.4269413
-1.2354023 0.60034204 -1.4336723
-1.2490336 0.62318873 -1.4402969
-1.2461543 0.61763191 -1.4404144
-1.2432749 0.61207497 -1.440532
-1.4139993 0.80794191 -1.3123876
-1.4022635 0.81775355 -1.3296888
-1.3895054 0.81291884 -1.3354374
-1.2266501 0.59152925 -1.4303576
-1.2237828 0.58599555 -1.4304746
-1.3989592 0.80279166 -1.3036765
-1.2547512 0.49625468 -1.278298
-0.57848758 0.20361036 -0.51345122
-0.56518567 0.16386312 -0.51507014
-0.57536006 0.20588481 -0.52120292
-0.55849844 0.16558456 -0.52122736
-0.57122803 0.21237069 -0.53105384
-0.57116866 0.20770186 -0.52759492
-0.55057967 0.17143279 -0.52910715
-0.56780899 0.21269763 -0.53253245
-0.54549193 0.17199898 -0.53132123
-0.56072265 0.21322632 -0.53511447
-0.53872627 0.17274374 -0.53423798
-0.53424847 0.16981268 -0.53679907
-0.55496919 0.21433014 -0.53939468
-0.53294444 0.17760473 -0.53880024
-0.53104031 0.17167151 -0.53716165
-0.47196642 -0.013049603 -0.47601786
-0.46598381 -0.023172081 -0.4714568
-0.46115306 -0.03147161 -0.47439405
-0.45852324 -0.037570298 -0.47176138
-0.47016323 -0.0058980584 -0.48155501
-0.46856385 -0.013265789 -0.48163745
-0.46438009 -0.022152185 -0.48249912
-0.45994946 -0.031109035 -0.48302537
-0.46314889 -0.010795236 -0.48808104
-0.45989066 -0.018732846 -0.49158603
-0.45681363 -0.028952241 -0.49070039
-0.45290262 -0.01699996 -0.4971773
-0.45109063 -0.026135206 -0.49872223
-0.4441312 -0.024882495 -0.50310206
-0.44226605 -0.02848202 -0.50317824
-0.5259043 0.16528201 -0.53416157
-0.54672289 0.21339458 -0.53737986
-0.54164588 0.2138561 -0.53949773
-0.52730644 0.18159604 -0.54052198
-0.52336752 0.17341012 -0.53743577
-0.51887167 0.1649695 -0.53589261
-0.54382175 0.22859997 -0.5448066
-0.54184479 0.22146767 -0.54341298
-0.53566962 0.21407378 -0.54553324
-0.53035796 0.20505589 -0.54688352
-0.52876306 0.19576532 -0.54386228
-0.52458441 0.18546408 -0.54167902
-0.54186583 0.23115259 -0.55231178
-0.5381186 0.22279584 -0.55160981
-0.53348207 0.21609735 -0.55350882
-0.52819175 0.20819485 -0.55155408
-0.45835239 -0.040213645 -0.45104188
-0.4610185 -0.032389224 -0.45820171
-0.45828629 -0.039303064 -0.45968276
-0.45854521 -0.033646703 -0.46489915
-0.45435333 -0.0047290921 -0.48583823
-0.44670779 -0.006554544 -0.48763788
-0.44655287 -0.012686253 -0.49274221
-0.43748516 -0.019103944 -0.49985307
-0.43243647 -0.025889158 -0.50296193
-0.42572898 -0.024748802 -0.50543761
-0.51560521 0.17507398 -0.53750795
-0.51115012 0.16653216 -0.53511608
-0.50666809 0.16019505 -0.53350621
-0.50091362 0.15262604 -0.52886021
-0.52221435 0.19567245 -0.54319924
-0.51770759 0.18701077 -0.54144853
-0.51108706 0.18086475 -0.53930163
-0.50623631 0.1732223 -0.53789121
-0.50121647 0.16552252 -0.53624302
-0.49011931 0.14410585 -0.53669602
-0.52042848 0.1978277 -0.54753
-0.51516318 0.18997401 -0.54557431
-0.44405559 -0.0018826127 -0.48498321
-0.43944487 -0.0086576939 -0.48913988
-0.43059027 -0.013375342 -0.49610019
-0.42932552 0.0027666688 -0.50522959
-0.425962 -0.0029854774 -0.5059287
-0.42530838 -0.012738109 -0.50342607
-0.42317936 -0.021573126 -0.50777084
-0.42760128 0.0083100796 -0.51204222
-0.42300144 -0.0005671978 -0.51222998
-0.42056936 -0.0095665455 -0.51254517
-0.41842613 -0.019262671 -0.51557112
-0.4187187 0.0013689995 -0.52015829
-0.41393924 -0.007522285 -0.52060622
-0.41151997 -0.017219722 -0.52211583
-0.40800622 -0.020749032 -0.52342272
-0.49390996 0.15385544 -0.52923346
-0.49166226 0.1494844 -0.53060842
-0.40854239 -0.0085123181 -0.5279901
-0.40489149 -0.013340592 -0.52982467
-0.40349489 -0.019028485 -0.52891523
-0.49725205 0.16471928 -0.53376013
-0.49235374 0.15753335 -0.53372085
-0.48783973 0.14806598 -0.53398484
-0.48436797 0.14208055 -0.53597826
-0.44155505 0.057147205 -0.53989655
-0.43441704 0.050294697 -0.53367609
-0.40221834 -0.011846244 -0.53499049
-0.39945841 -0.017172635 -0.53510314
-0.44165093 0.0025118589 -0.47860521
-0.43571648 0.0022858381 -0.48345563
-0.43259054 -0.0061257482 -0.48569956
-0.43200564 0.0049906373 -0.49306816
-0.42903584 -0.0041385293 -0.49256936
-0.42918009 0.0071997046 -0.50096917
-0.42548096 -0.0021512508 -0.49943909
-0.42375869 0.019095838 -0.51033461
-0.42295909 0.010677397 -0.51299113
-0.4202064 0.0053648949 -0.51310354
-0.42288691 0.037487984 -0.51777834
-0.41770002 0.021395683 -0.51434857
-0.41784534 0.014253616 -0.51713938
-0.41583419 0.0063547492 -0.5194661
-0.41114616 -0.0032727122 -0.52019799
-0.43328309 0.048297644 -0.52601892
-0.42722747 0.043412209 -0.52489418
-0.42001754 0.035197258 -0.52232552
-0.41290393 0.022622406 -0.52153057
-0.41193026 0.015652299 -0.52260685
-0.40995777 0.0060613751 -0.5260309
-0.4066737 -0.003056407 -0.52710509
-0.40303236 -0.0078719258 -0.52893496
-0.42139181 0.03362 -0.51316798
-0.41756043 0.026005924 -0.51315737
-0.41419965 0.027430892 -0.51930714
0.073583797 -0.16076058 0.84472448
0.078348503 -0.16390327 0.84843278
0.084387586 -0.16712666 0.85191643
0.090180308 -0.16879493 0.85696083
0.10305697 -0.174366 0.8642664
0.10822907 -0.17824426 0.86464924
0.1062887 -0.17394608 0.86823237
0.11498398 -0.17874753 0.87294447
0.11946827 -0.18333164 0.87315643
0.10804932 -0.17540604 0.86864984
0.11331265 -0.1790787 0.86978549
0.11885555 -0.18366441 0.87138969
0.12016992 -0.17968261 0.87717432
0.12321842 -0.18379095 0.8783173
0.12924376 -0.1882399 0.88177216
0.20466262 -0.31500316 0.85734904
0.2075184 -0.31613672 0.86096936
0.20470098 -0.31470668 0.85431862
0.13164081 -0.18497729 0.88450861
0.21436451 -0.3183198 0.87192994
0.20841748 -0.31496912 0.86265093
0.2117807 -0.31617698 0.86741799
0.14281254 -0.18745515 0.89113438
0.14752594 -0.193277 0.89041543
0.21681564 -0.31568512 0.87495339
0.21540591 -0.31482834 0.87163085
0.26090586 -0.27540848 0.788773
0.26307556 -0.27884772 0.78746158
0.26684776 -0.2703872 0.77494186
0.26822549 -0.2744844 0.77546561
0.26934752 -0.26784933 0.76793039
0.26980835 -0.27293852 0.76816875
0.27410007 -0.26554579 0.76058984
0.27505121 -0.26912138 0.7599389
0.27846712 -0.26201728 0.75104964
0.27978587 -0.26586193 0.75091302
0.28301281 -0.25986487 0.74315012
0.28310984 -0.26369417 0.74443269
0.2869668 -0.25685453 0.73522139
0.28731334 -0.26134425 0.73630941
0.29190448 -0.2544319 0.72536063
0.2944085 -0.25263765 0.72095776
0.15440463 -0.19522443 0.89934921
0.15684833 -0.19924688 0.89953977
0.15348773 -0.19431731 0.89651465
0.155724 -0.1985867 0.89484632
0.26455256 -0.2727716 0.78552282
0.26573956 -0.27619287 0.78532964
0.26647568 -0.2711696 0.78083342
0.26800081 -0.27465403 0.78027362
0.2760247 -0.26306728 0.75954354
0.27753207 -0.26098421 0.75509906
0.28371853 -0.25613785 0.74169666
0.28898051 -0.25319558 0.7333262
0.29149857 -0.25102723 0.72757441
0.29645059 -0.25052309 0.72133255
0.15951467 -0.19434401 0.90356743
0.16172089 -0.1971201 0.90382296
0.23304787 -0.31847483 0.88705057
0.16990703 -0.1983684 0.91058117
0.17747638 -0.20414868 0.91282457
0.18415435 -0.21096787 0.9124136
0.18775909 -0.2151202 0.91209728
0.20006174 -0.19390136 0.8701089
0.20440748 -0.19901168 0.87246567
0.20783255 -0.20452735 0.87378359
0.18623219 -0.21206784 0.91698492
0.19249867 -0.21695074 0.91641605
0.20331094 -0.20290843 0.8891812
0.20753981 -0.20949042 0.88935012
0.21143015 -0.21340439 0.8888424
0.20649606 -0.20200166 0.88287795
0.21022402 -0.20770788 0.8839131
0.21311457 -0.21246275 0.88558728
0.20703381 -0.20261928 0.87648094
0.20881495 -0.20467892 0.87585157
0.27952918 -0.24204648 0.81383121
0.28058189 -0.24464439 0.81421876
0.28282103 -0.24037072 0.80678976
0.28348827 -0.24412304 0.80824149
0.28720388 -0.2372787 0.79749644
0.28859982 -0.2401447 0.7967487
0.29102233 -0.23444971 0.78953129
0.29205295 -0.23824783 0.79010111
0.29495165 -0.23246258 0.78218943
0.29566151 -0.23627155 0.78315878
0.30578974 -0.22654168 0.76245666
0.30798441 -0.22506921 0.75802886
0.19970413 -0.21783623 0.92215323
0.20653002 -0.22334999 0.9214493
0.21208741 -0.22928989 0.92229486
0.25778088 -0.30994552 0.91143692
0.25831771 -0.31738514 0.91100192
0.26485649 -0.32314622 0.9139421
0.26150364 -0.3071152 0.90705812
0.22533835 -0.21702605 0.89221191
0.22717103 -0.21692514 0.89133453
0.2785635 -0.29443228 0.86995125
0.28285173 -0.29353273 0.86490005
0.28699908 -0.28816503 0.85380971
0.27846968 -0.23245007 0.82697302
0.27841449 -0.2393342 0.82675302
0.28085247 -0.24602526 0.8270604
0.27937335 -0.23002508 0.81887382
0.27868003 -0.23759079 0.81758952
0.2825262 -0.24704748 0.81610399
0.28451759 -0.22780302 0.8117497
0.28368056 -0.23355766 0.80876702
0.28575486 -0.24782319 0.81079823
0.28923899 -0.22488776 0.80222207
0.2875405 -0.23122291 0.80073041
0.29292065 -0.22228239 0.79363376
0.2913726 -0.2286355 0.79127783
0.29683203 -0.21978647 0.78529364
0.29583007 -0.22636926 0.78238237
0.30185992 -0.21813591 0.77645761
0.30102307 -0.22537099 0.77377206
0.30554017 -0.23118532 0.77340335
0.30614114 -0.21502613 0.76797676
0.30501312 -0.22186489 0.76524132
0.31006688 -0.21402685 0.76121384
0.31102747 -0.21909161 0.75740117
0.31726462 -0.21732032 0.75541669
0.35756078 -0.19883586 0.68110782
0.35643387 -0.20310928 0.67864704
0.36142221 -0.19646001 0.67332458
0.35942107 -0.20189647 0.67171323
0.36464906 -0.19499545 0.66576922
0.3637372 -0.19926926 0.66408277
0.21109076 -0.22360492 0.92588687
0.21454656 -0.23009825 0.92512125
0.22119558 -0.23731101 0.92454439
0.22806479 -0.24473423 0.9254657
0.23390859 -0.25303692 0.9259783
0.23930733 -0.26142022 0.92621607
0.24445438 -0.27075422 0.92596596
0.24770522 -0.27943823 0.92559373
0.25346678 -0.28838694 0.92549247
0.25620425 -0.296983 0.9241609
0.26040652 -0.30675444 0.92311031
0.26435786 -0.312482 0.92326814
0.22663705 -0.22814384 0.91636425
0.22865163 -0.23395973 0.9194293
0.23397356 -0.24150658 0.92019719
0.23898813 -0.25050098 0.92012197
0.24350473 -0.25931227 0.91986263
0.24778914 -0.26852304 0.91990185
0.25195077 -0.27687526 0.92007643
0.25692135 -0.28628659 0.91982597
0.26015022 -0.29586124 0.91821986
0.2594735 -0.30489007 0.91667598
0.26392549 -0.31381255 0.91986197
0.26782429 -0.32360446 0.91602987
0.22994961 -0.22616237 0.9108454
0.23304136 -0.23030686 0.91163284
0.23841196 -0.23881578 0.91260946
0.24275133 -0.24824913 0.91323733
0.24677381 -0.25732613 0.91407216
0.25126383 -0.26734579 0.91491795
0.25384244 -0.27213374 0.91466939
0.26197669 -0.2878322 0.91433734
0.26605576 -0.29343811 0.9110297
0.26588827 -0.30184042 0.90703946
0.23438503 -0.22359329 0.90514928
0.23821908 -0.22787189 0.90373433
0.24051508 -0.23375314 0.90559173
0.27109009 -0.29257712 0.90251708
0.27084038 -0.29987037 0.89968151
0.24009573 -0.22307205 0.89810586
0.27583504 -0.28981352 0.89295477
0.27440876 -0.29726589 0.89071691
0.24634312 -0.21553326 0.88295764
0.27796093 -0.27889651 0.883448
0.27977154 -0.28551063 0.88419849
0.278662 -0.29400176 0.88207179
0.24713954 -0.21411717 0.88068068
0.28421155 -0.28449363 0.87577289
0.28217614 -0.29007471 0.87330121
0.25037652 -0.2036005 0.86780769
0.25191739 -0.20649341 0.86768341
0.28823793 -0.2825976 0.86733329
0.28660738 -0.28815189 0.86457568
0.25184137 -0.20205453 0.8604998
0.25613457 -0.20688918 0.86116034
0.29214546 -0.28041616 0.85781097
0.28976765 -0.2852962 0.85516012
0.2587702 -0.20371002 0.85523653
0.27867821 -0.23333193 0.84773642
0.28126588 -0.23882854 0.84801298
0.28454423 -0.24465291 0.84749699
0.29637849 -0.27726454 0.84945709
0.2947225 -0.28340209 0.84682012
0.26442781 -0.19939545 0.84342796
0.27702385 -0.22119161 0.84019572
0.2780996 -0.22916877 0.84149629
0.28030947 -0.2381122 0.84066868
0.28540182 -0.2467725 0.84123582
0.29153159 -0.25241172 0.84089738
0.30122697 -0.27500719 0.84129006
0.2999258 -0.2801072 0.8398726
0.27891183 -0.2191866 0.83373404
0.27854002 -0.22737359 0.83162606
0.27887285 -0.23694147 0.83317995
0.28513747 -0.24744087 0.83358401
0.2926001 -0.25212198 0.8359828
0.30525488 -0.2715801 0.83233422
0.30536318 -0.27691495 0.83130938
0.28341478 -0.21619871 0.82513601
0.28239834 -0.22323455 0.82311857
0.31003669 -0.2691192 0.82441741
0.28706864 -0.21358979 0.81664866
0.28659058 -0.22126208 0.81410235
0.31458545 -0.26543877 0.81576174
0.29115355 -0.2113001 0.80780143
0.2900148 -0.21882427 0.80547917
0.31886268 -0.26304835 0.80846959
0.29571444 -0.20946223 0.79898477
0.29358199 -0.21570794 0.79667407
0.32409796 -0.26092672 0.80023402
0.28483215 -0.17733058 0.79589635
0.30050796 -0.20716751 0.79084158
0.29918066 -0.21286128 0.78744072
0.32852232 -0.25679395 0.78891855
0.30456007 -0.20411012 0.78188062
0.30347052 -0.21139954 0.77955651
0.31779248 -0.23726103 0.78194243
0.33106393 -0.2533851 0.78282303
0.30894187 -0.20172554 0.77331483
0.30775952 -0.20815693 0.77048022
0.33602819 -0.25124627 0.7748906
0.31363302 -0.20000276 0.76718467
0.31539145 -0.20684475 0.76310396
0.31949478 -0.21310033 0.7592144
0.32734284 -0.22235925 0.76063347
0.34340119 -0.2473748 0.76083255
0.32219052 -0.20640258 0.76049256
0.32414484 -0.21413122 0.75938541
0.32855606 -0.2189348 0.76028985
0.34994534 -0.24186949 0.74619365
0.35235769 -0.2402299 0.7387107
0.35822707 -0.23434414 0.72750694
0.3572225 -0.23654245 0.72943234
0.35993245 -0.23346119 0.72533518
0.3602047 -0.23458444 0.72406143
0.36493 -0.22917289 0.71089745
0.36380556 -0.23196582 0.71051043
0.3667081 -0.22782403 0.70517981
0.35710248 -0.18581997 0.69300073
0.35992727 -0.19314805 0.69372296
0.35172403 -0.1782355 0.68387461
0.35631734 -0.18512754 0.68519062
0.35806352 -0.19349124 0.68417311
0.35462719 -0.17574385 0.67639804
0.35965934 -0.18298002 0.67704827
0.36157009 -0.19100842 0.67588401
0.3584016 -0.17481878 0.67129976
0.36348274 -0.1816795 0.66999847
0.36535048 -0.18856178 0.66881567
0.24384965 -0.26819921 0.92870659
0.26377872 -0.3052431 0.92746979
0.25066853 -0.26584351 0.91663605
0.25655988 -0.2779091 0.91692436
0.2589682 -0.28246561 0.91675663
0.24257866 -0.24007502 0.90924776
0.24521236 -0.24611716 0.90986913
0.24927345 -0.25623518 0.91143686
0.25361183 -0.26521397 0.91172063
0.25821707 -0.27429563 0.91172618
0.26277974 -0.2830345 0.91150999
0.26682502 -0.28863159 0.90959799
0.2429456 -0.22944278 0.90061373
0.24458489 -0.23677963 0.90371883
0.24834159 -0.24478881 0.90414256
0.25302613 -0.25374892 0.90389007
0.257707 -0.26278263 0.90369898
0.26291659 -0.27147761 0.90384835
0.2673485 -0.28046787 0.90354973
0.27085152 -0.28771454 0.9028306
0.24321677 -0.21845639 0.89185494
0.24446009 -0.22542602 0.89530087
0.2484321 -0.23359886 0.89550143
0.25287902 -0.24218097 0.89531994
0.25755978 -0.25121447 0.89512885
0.26215208 -0.26014423 0.89509445
0.26759994 -0.26880354 0.89509004
0.27165633 -0.27790558 0.89469767
0.27495909 -0.28533643 0.89483047
0.2463977 -0.21726069 0.8861506
0.24853097 -0.22253802 0.88696563
0.25301421 -0.23107591 0.88676304
0.25788912 -0.23975325 0.88678461
0.26266491 -0.24851215 0.88682854
0.26738864 -0.25697339 0.88652676
0.27213836 -0.26635939 0.88656348
0.27605191 -0.27528614 0.88589817
0.27812618 -0.28269416 0.88804764
0.25092936 -0.21362355 0.87655437
0.25306422 -0.22009033 0.87825131
0.25813925 -0.22862762 0.87825269
0.26302162 -0.23736121 0.87832749
0.26745704 -0.24592121 0.87814647
0.27197638 -0.25449672 0.87800753
0.27716529 -0.263598 0.87808263
0.28106228 -0.27289373 0.87736797
0.28398013 -0.27950618 0.87679881
0.25323099 -0.21005344 0.87037104
0.25731939 -0.2173284 0.86989832
0.2627517 -0.22613487 0.87020212
0.26719961 -0.23493168 0.86996418
0.27175295 -0.24351962 0.86984462
0.27618831 -0.25207961 0.8696636
0.28143004 -0.26117378 0.86965364
0.28551498 -0.27051455 0.869138
0.28844744 -0.27727771 0.86837018
0.25954285 -0.20971796 0.86060017
0.26170668 -0.21475732 0.8616699
0.26688606 -0.22339699 0.8620947
0.27170587 -0.23233342 0.86171263
0.2756446 -0.24116407 0.86116463
0.2804589 -0.24985155 0.8613888
0.28540304 -0.25868779 0.8612141
0.29012921 -0.26800969 0.86106795
0.29237568 -0.27451557 0.86054015
0.26272705 -0.20505455 0.8522554
0.26652282 -0.21224874 0.85303569
0.27149838 -0.22102815 0.85319316
0.27573103 -0.22992592 0.85275054
0.27965009 -0.2388496 0.85305738
0.28470042 -0.24783744 0.8524639
0.28971088 -0.25646901 0.85248625
0.29460743 -0.26563209 0.85224837
0.296592 -0.27167538 0.85183382
0.26694465 -0.20263326 0.84413832
0.27136272 -0.20956391 0.84462571
0.27508825 -0.21808574 0.84446138
0.2771436 -0.22612718 0.84653676
0.28905523 -0.25050062 0.847103
0.29431382 -0.25587255 0.84405708
0.29890659 -0.26329216 0.84343046
0.30162466 -0.26949295 0.84258759
0.27118492 -0.19850025 0.83605516
0.27649462 -0.20683226 0.83634859
0.27895373 -0.21377215 0.83522946
0.29839247 -0.25588256 0.83711648
0.30319756 -0.26092958 0.83430314
0.3053773 -0.26628995 0.83449602
0.27606428 -0.19541636 0.82749629
0.28105575 -0.20429674 0.82739103
0.28276247 -0.21133167 0.8273437
0.30849403 -0.25932533 0.82622743
0.31044757 -0.26398474 0.82528377
0.27755237 -0.1879853 0.81889385
0.28029126 -0.19217509 0.81897897
0.28596368 -0.20162499 0.81950647
0.28732318 -0.20803419 0.81788701
0.31350765 -0.25584447 0.81788158
0.31460541 -0.26083994 0.81660503
0.28080314 -0.18522993 0.81133819
0.28569251 -0.18966094 0.81085002
0.29052335 -0.19920439 0.8107453
0.29136068 -0.20597479 0.80996472
0.31825739 -0.25307536 0.80903059
0.31967479 -0.25919336 0.8081736
0.28495455 -0.18125981 0.80111307
0.29052365 -0.18767893 0.80250186
0.29555431 -0.19673717 0.80277878
0.29654074 -0.20316717 0.80084431
0.32292882 -0.25107348 0.80065095
0.32408503 -0.25742376 0.79980332
0.28994194 -0.17883381 0.7935248
0.29549718 -0.18496051 0.7942555
0.30012521 -0.19415176 0.79403424
0.30074328 -0.20115075 0.7924192
0.32494366 -0.24144787 0.79102248
0.32730719 -0.24737969 0.79228234
0.32758248 -0.25432259 0.79268676
0.29776749 -0.17601147 0.78492332
0.30045176 -0.18184665 0.78628957
0.30490577 -0.19077766 0.78600019
0.30554551 -0.19745958 0.78418624
0.33191958 -0.24541038 0.7837621
0.333799 -0.25034153 0.779526
0.3013199 -0.17386848 0.77821934
0.30540827 -0.17944708 0.77773571
0.30941859 -0.18900654 0.77702808
0.30929494 -0.19573617 0.77552754
0.33322647 -0.23576708 0.77478588
0.33626708 -0.24259278 0.77527922
0.33741224 -0.24887596 0.77318275
0.30663371 -0.16998634 0.76774836
0.31000379 -0.17630222 0.76949996
0.31458116 -0.18554953 0.7691738
0.31672567 -0.19446358 0.76694947
0.32020056 -0.20014311 0.76324862
0.33400765 -0.22391671 0.763641
0.33803168 -0.23073138 0.76725161
0.34150189 -0.23965441 0.76728153
0.34126222 -0.24660775 0.76592702
0.31062341 -0.16746479 0.76063436
0.31497142 -0.17393303 0.7610783
0.31986928 -0.18255329 0.76095253
0.3240304 -0.19164798 0.76061243
0.32725966 -0.20093757 0.75955003
0.33178908 -0.2098944 0.75858712
0.33687937 -0.21847817 0.75925219
0.34270334 -0.22694255 0.75974184
0.34585857 -0.23696855 0.75874138
0.34539384 -0.2441574 0.75768369
0.31354541 -0.16453636 0.751831
0.31997114 -0.17128912 0.75248706
0.32482666 -0.17939565 0.75282836
0.32916021 -0.18828771 0.75259799
0.33404323 -0.19733164 0.75248736
0.33840135 -0.20606714 0.75205928
0.34293652 -0.21489865 0.75186223
0.34769392 -0.22392201 0.75183046
0.35006538 -0.23450264 0.7501325
0.34943524 -0.24121207 0.74901408
0.32035726 -0.16140595 0.7443887
0.32499206 -0.16820806 0.74482971
0.32973331 -0.17708534 0.74481398
0.33445001 -0.18599623 0.74475008
0.33930874 -0.19496189 0.74482775
0.34384918 -0.20379338 0.74459654
0.34838212 -0.21262397 0.74435657
0.35239017 -0.22132795 0.7437349
0.35447997 -0.23150787 0.74151695
0.35623571 -0.23741037 0.73587221
0.32539803 -0.15878791 0.7361179
0.32998556 -0.16592997 0.73679882
0.33457971 -0.17478281 0.73662072
0.33929482 -0.18366715 0.73632157
0.34392017 -0.19225714 0.73600322
0.3485738 -0.20105164 0.73580903
0.35291904 -0.21017611 0.73587197
0.35726047 -0.21865438 0.73556989
0.3588174 -0.22869553 0.73326689
0.33071017 -0.15708545 0.72863895
0.33463532 -0.16345274 0.72819227
0.33938688 -0.17201835 0.72798085
0.34429222 -0.18053779 0.72794461
0.34899583 -0.18925641 0.72777122
0.35357332 -0.19826455 0.72769976
0.35789329 -0.20720081 0.72757393
0.36195201 -0.21648338 0.72706687
0.3636328 -0.22679517 0.72476441
0.33416712 -0.15641281 0.72328103
0.33930606 -0.16165188 0.72098702
0.34431434 -0.16923916 0.71969324
0.34890407 -0.17794347 0.71938926
0.35347682 -0.18676861 0.71920258
0.35804972 -0.19559382 0.7190159
0.36262244 -0.20441899 0.71882933
0.36638606 -0.21341769 0.71869344
0.36764678 -0.22309285 0.71623033
0.34343255 -0.16271472 0.71438235
0.34777278 -0.16814747 0.7127831
0.35294408 -0.17590383 0.71174842
0.35768801 -0.18441391 0.71085334
0.36177349 -0.19262324 0.71061915
0.36695775 -0.20220208 0.71048063
0.37080795 -0.21081936 0.71047866
0.37153602 -0.22042856 0.70786941
0.35862511 -0.18399298 0.70128143
0.36156392 -0.1915275 0.70058978
0.36864188 -0.20081083 0.70505023
0.37313914 -0.21718325 0.70188338
0.3641344 -0.19595602 0.71208036
0.36514744 -0.19757271 0.71178198
