# .PCD v0.7 - Point Cloud Data file format
VERSION 0.7
FIELDS x y z
SIZE 4 4 4
TYPE F F F
COUNT 1 1 1
WIDTH 1420
HEIGHT 1
VIEWPOINT 0 0 0 1 0 0 0
POINTS 1420
DATA ascii
0.26478845 -0.20930973 0.85238171
0.26525655 -0.21021312 0.85236257
0.26572463 -0.21111646 0.85234344
0.26725736 -0.21233335 0.8529197
0.26772425 -0.21323439 0.85290068
0.26819113 -0.21413544 0.85288161
0.26865801 -0.21503648 0.85286254
0.2691249 -0.21593755 0.85284346
0.26959178 -0.2168386 0.85282445
0.27005866 -0.21773964 0.85280538
0.27052554 -0.21864069 0.8527863
0.27099243 -0.21954173 0.85276723
0.27145931 -0.22044277 0.85274822
0.27192619 -0.22134385 0.85272914
0.27239308 -0.22224489 0.85271007
0.27285996 -0.2231459 0.85269099
0.27332684 -0.22404696 0.85267198
0.27379373 -0.22494802 0.85265291
0.27426061 -0.22584906 0.85263383
0.27472749 -0.22675012 0.85261476
0.27519438 -0.22765118 0.85259575
0.27566126 -0.22855219 0.85257667
0.27612814 -0.22945325 0.8525576
0.27659503 -0.23035431 0.85253853
0.27602246 -0.23099047 0.85192311
0.27649057 -0.23189385 0.85190398
0.27695864 -0.23279721 0.8518849
0.27742672 -0.23370056 0.85186577
0.27789479 -0.23460394 0.85184669
0.27836287 -0.23550729 0.85182756
0.27883095 -0.23641065 0.85180843
0.27929905 -0.23731403 0.85178936
0.27976713 -0.23821738 0.85177022
0.28023523 -0.23912077 0.85175115
0.28070331 -0.24002412 0.85173202
0.28117138 -0.24092747 0.85171294
0.28163946 -0.24183084 0.85169381
0.28210753 -0.24273421 0.85167468
0.28257564 -0.24363756 0.8516556
0.28304371 -0.24454093 0.85163647
0.28351179 -0.24544428 0.8516174
0.28397989 -0.24634767 0.85159826
0.28444797 -0.24725102 0.85157919
0.28491604 -0.24815437 0.85156006
0.28538415 -0.24905775 0.85154092
0.28585222 -0.24996111 0.85152185
0.2863203 -0.25086445 0.85150272
0.2867884 -0.25176784 0.85148364
0.28725648 -0.25267118 0.85146451
0.28772455 -0.25357455 0.85144544
0.28819263 -0.25447792 0.8514263
0.28966776 -0.25558364 0.85200489
0.29013464 -0.25648469 0.85198587
0.29060152 -0.25738573 0.8519668
0.2910684 -0.25828677 0.85194772
0.29253754 -0.25938088 0.85252666
0.2930032 -0.2602796 0.85250765
0.29346889 -0.26117831 0.85248864
0.29393458 -0.26207703 0.85246962
0.29440027 -0.26297578 0.85245061
0.29486597 -0.26387453 0.8524316
0.29433659 -0.26459411 0.85181433
0.29480347 -0.26549515 0.85179526
0.29427773 -0.26622164 0.85117793
0.2947458 -0.26712501 0.8511588
0.29521388 -0.26802838 0.85113966
0.29568195 -0.26893175 0.85112059
0.29615006 -0.26983511 0.85110146
0.29661813 -0.27073848 0.85108238
0.29708624 -0.27164185 0.85106325
0.29657003 -0.27238685 0.85044533
0.29703933 -0.27329254 0.8504262
0.2975086 -0.27419823 0.850407
0.29797786 -0.2751039 0.85038787
0.29695991 -0.27662176 0.84915161
0.29743159 -0.27753207 0.84913236
0.29692742 -0.27830029 0.84851408
0.29642561 -0.27907309 0.84789562
0.29689971 -0.27998805 0.84787625
0.29640156 -0.2807678 0.84725773
0.29493469 -0.2814194 0.84603977
0.29541236 -0.2823413 0.84602028
0.29492143 -0.28313497 0.84540147
0.2605904 -0.20233625 0.85341066
0.26105851 -0.20323965 0.85339153
0.26152658 -0.20414299 0.85337245
0.26199466 -0.20504639 0.85335332
0.26246274 -0.20594972 0.85333425
0.26293081 -0.20685309 0.85331511
0.26339892 -0.20775646 0.85329604
0.26386699 -0.20865983 0.85327691
0.26433507 -0.20956317 0.85325778
0.26480317 -0.21046656 0.8532387
0.26527125 -0.2113699 0.85321957
0.26680514 -0.21258613 0.85379356
0.2662074 -0.21317664 0.85318136
0.26773891 -0.21438822 0.85375547
0.26820579 -0.21528926 0.8537364
0.26867267 -0.21619034 0.85371733
0.26913956 -0.21709138 0.85369831
0.26960644 -0.21799242 0.85367924
0.27007332 -0.21889347 0.85366017
0.27054021 -0.21979451 0.85364109
0.27100709 -0.22069556 0.85362208
0.27147397 -0.22159663 0.85360301
0.27194086 -0.22249767 0.85358393
0.27240774 -0.22339869 0.85356486
0.27287462 -0.22429974 0.85354584
0.27334151 -0.2252008 0.85352677
0.27380839 -0.22610185 0.8535077
0.27427527 -0.2270029 0.85348862
0.27474216 -0.22790396 0.85346961
0.27520904 -0.22880498 0.85345054
0.27567592 -0.22970603 0.85343146
0.27614281 -0.23060709 0.85341239
0.27660969 -0.23150814 0.85339338
0.27707657 -0.23240919 0.8533743
0.27650523 -0.23305064 0.85276103
0.27697334 -0.233954 0.8527419
0.27847722 -0.23511232 0.85331714
0.27790949 -0.23576073 0.85270369
0.27837759 -0.23666409 0.85268456
0.27884567 -0.23756747 0.85266548
0.27931374 -0.23847082 0.85264635
0.27978185 -0.23937421 0.85262728
0.28024992 -0.24027756 0.85260814
0.280718 -0.24118091 0.85258907
0.2811861 -0.24208428 0.85256994
0.28165418 -0.24298765 0.8525508
0.28212225 -0.243891 0.85253173
0.28259033 -0.24479437 0.8525126
0.2830584 -0.24569772 0.85249352
0.28352651 -0.2466011 0.85247439
0.28501359 -0.24772699 0.85305029
0.28548047 -0.24862802 0.85303122
0.28594735 -0.24952908 0.8530122
0.28586692 -0.25111789 0.85237885
0.28633499 -0.25202128 0.85235977
0.28680307 -0.25292462 0.85234064
0.28727117 -0.25382799 0.85232157
0.28773925 -0.25473136 0.85230243
0.28921553 -0.25583643 0.85287875
0.28968242 -0.25673747 0.85285974
0.2901493 -0.25763851 0.85284066
0.29061618 -0.25853956 0.85282159
0.29108307 -0.2594406 0.85280252
0.29255217 -0.26053175 0.85337931
0.29301786 -0.26143047 0.8533603
0.29348356 -0.26232922 0.85334128
0.29394925 -0.26322794 0.85332227
0.29441494 -0.26412666 0.85330325
0.29388437 -0.26484689 0.85268819
0.29435125 -0.26574793 0.85266912
0.29481813 -0.26664898 0.85265005
0.29429242 -0.26737845 0.85203493
0.2947605 -0.26828182 0.85201579
0.2952286 -0.26918519 0.85199672
0.29569668 -0.27008855 0.85197759
0.29616475 -0.27099192 0.85195851
0.29663283 -0.27189529 0.85193938
0.29611549 -0.27264094 0.85132372
0.29658478 -0.27354664 0.85130453
0.29705405 -0.27445233 0.8512854
0.29752332 -0.27535799 0.85126626
0.29650304 -0.27687714 0.85003448
0.29599652 -0.27764368 0.84941852
0.29646939 -0.27855629 0.84939921
0.29596645 -0.27932981 0.84878302
0.29644054 -0.28024477 0.84876364
0.29496777 -0.28089064 0.84755033
0.29447204 -0.28167802 0.8469339
0.29494971 -0.28259993 0.84691441
0.29445761 -0.28339428 0.8462978
0.29493651 -0.28431851 0.84627825
0.25905684 -0.202252 0.85369629
0.26060516 -0.20349309 0.8542676
0.26107323 -0.20439643 0.85424852
0.26154131 -0.20529982 0.85422939
0.26200938 -0.20620316 0.85421032
0.26247746 -0.20710653 0.85419118
0.26294556 -0.2080099 0.85417211
0.26341364 -0.20891327 0.85415298
0.26388171 -0.2098166 0.85413384
0.26434982 -0.21072 0.85411477
0.26481789 -0.21162334 0.85409564
0.26528597 -0.21252674 0.85407656
0.26575404 -0.21343008 0.85405743
0.26622212 -0.21433344 0.85403836
0.2677536 -0.21554208 0.85461026
0.26822048 -0.21644315 0.85459119
0.26868737 -0.21734419 0.85457218
0.26915425 -0.21824524 0.8545531
0.26962113 -0.21914628 0.85453403
0.27008802 -0.22004732 0.85451496
0.2705549 -0.22094837 0.85449594
0.27102178 -0.22184944 0.85447687
0.27148867 -0.22275048 0.8544578
0.27195555 -0.2236515 0.85443872
0.27242243 -0.22455256 0.85441971
0.27288932 -0.22545362 0.85440063
0.2733562 -0.22635466 0.85438156
0.27382308 -0.22725572 0.85436249
0.27428997 -0.22815678 0.85434347
0.27475685 -0.22905779 0.8543244
0.27522373 -0.22995885 0.85430533
0.27569062 -0.23085991 0.85428625
0.2761575 -0.23176095 0.85426724
0.27662438 -0.23266201 0.85424817
0.27709126 -0.23356304 0.85422909
0.27755815 -0.23446408 0.85421002
0.27802503 -0.23536514 0.85419101
0.27849191 -0.23626618 0.85417193
0.2789588 -0.23716724 0.85415286
0.27839231 -0.23782091 0.85354155
0.27886039 -0.23872426 0.85352242
0.2793285 -0.23962764 0.85350335
0.27979657 -0.240531 0.85348421
0.28026465 -0.24143435 0.85346514
0.28073275 -0.24233772 0.85344601
0.28120083 -0.24324109 0.85342687
0.2816689 -0.24414444 0.8534078
0.28213698 -0.24504781 0.85338867
0.28362763 -0.2461777 0.8539623
0.28409451 -0.24707876 0.85394323
0.2845614 -0.2479798 0.85392416
0.28502828 -0.24888083 0.85390508
0.28549516 -0.24978189 0.85388607
0.28596205 -0.25068295 0.85386699
0.28642893 -0.25158399 0.85384792
0.28689581 -0.25248504 0.85382885
0.28681782 -0.25408143 0.85319763
0.28728589 -0.2549848 0.8531785
0.28876334 -0.25608921 0.85375261
0.28923023 -0.25699025 0.8537336
0.28969711 -0.25789133 0.85371453
0.29016399 -0.25879237 0.85369545
0.29063088 -0.25969341 0.85367638
0.29210114 -0.26078388 0.85425097
0.29256684 -0.2616826 0.85423195
0.29303253 -0.26258135 0.85421294
0.29349822 -0.26348007 0.85419393
0.29396391 -0.26437879 0.85417491
0.29343218 -0.2650997 0.85356206
0.29389906 -0.26600075 0.85354298
0.29436594 -0.26690179 0.85352391
0.29383907 -0.26763189 0.852911
0.29430714 -0.26853526 0.85289186
0.29477525 -0.26943862 0.85287279
0.29524332 -0.27034199 0.85285366
0.2957114 -0.27124536 0.85283458
0.29617947 -0.27214873 0.85281545
0.29664755 -0.2730521 0.85279638
0.29613024 -0.27380073 0.85218287
0.29659954 -0.27470642 0.85216373
0.29706883 -0.27561209 0.8521446
0.2960462 -0.27713254 0.85091734
0.29553851 -0.27789974 0.85030359
0.29601139 -0.27881235 0.85028428
0.29550725 -0.27958649 0.84967035
0.29500556 -0.28036526 0.8490563
0.29548085 -0.28128254 0.84903693
0.29400936 -0.28193671 0.84782797
0.29448706 -0.28285861 0.84780848
0.29399377 -0.28365356 0.84719414
0.29447266 -0.28457779 0.84717458
0.25860229 -0.2025061 0.85457468
0.25907159 -0.20341179 0.85455549
0.26061982 -0.2046499 0.85512465
0.26108792 -0.20555329 0.85510552
0.26155603 -0.20645663 0.85508645
0.2620241 -0.20736 0.85506731
0.26249218 -0.20826337 0.85504824
0.26296026 -0.20916674 0.85502911
0.26342833 -0.21007007 0.85501003
0.26389644 -0.21097347 0.8549909
0.26436451 -0.21187681 0.85497177
0.26483262 -0.21278021 0.85495269
0.26530069 -0.21368355 0.85493356
0.26576877 -0.21458691 0.85491449
0.26730138 -0.21579486 0.85548419
0.26776826 -0.21669593 0.85546511
0.26823515 -0.21759698 0.8554461
0.26870203 -0.21849802 0.85542703
0.26916891 -0.21939906 0.85540795
0.2696358 -0.22030011 0.85538888
0.27010268 -0.22120115 0.85536987
0.27056956 -0.22210222 0.85535079
0.27103645 -0.22300327 0.85533172
0.27150333 -0.22390428 0.85531265
0.27197021 -0.22480534 0.85529363
0.2724371 -0.2257064 0.85527456
0.27290398 -0.22660744 0.85525548
0.27337086 -0.2275085 0.85523641
0.27383775 -0.22840956 0.8552174
0.27430463 -0.22931057 0.85519832
0.27477151 -0.23021163 0.85517925
0.27523839 -0.23111269 0.85516018
0.27570528 -0.23201373 0.85514116
0.27617216 -0.23291479 0.85512209
0.27663904 -0.23381582 0.85510302
0.27710593 -0.23471686 0.85508394
0.27757281 -0.23561792 0.85506493
0.27803969 -0.23651896 0.85504586
0.27850658 -0.23742002 0.85502678
0.27897346 -0.23832108 0.85500771
0.27840701 -0.23897773 0.85439855
0.27887511 -0.23988111 0.85437948
0.27934319 -0.24078447 0.85436034
0.27981126 -0.24168782 0.85434127
0.28027934 -0.24259119 0.85432214
0.28074741 -0.24349456 0.854303
0.28121552 -0.24439791 0.85428393
0.28270853 -0.24552944 0.85485524
0.28317541 -0.24643049 0.85483623
0.28364229 -0.24733154 0.85481715
0.28410918 -0.24823259 0.85479808
0.28457606 -0.24913362 0.85477901
0.28504294 -0.25003469 0.85475999
0.28550982 -0.25093573 0.85474092
0.28597671 -0.25183678 0.85472184
0.28644359 -0.25273782 0.85470277
0.28691047 -0.25363886 0.85468376
0.28737736 -0.25453991 0.85466468
0.28784424 -0.25544095 0.85464561
0.28831112 -0.25634199 0.85462654
0.28877801 -0.25724304 0.85460752
0.28924489 -0.25814411 0.85458845
0.28971177 -0.25904515 0.85456938
0.29017866 -0.2599462 0.8545503
0.29064554 -0.26084724 0.85453129
0.29211578 -0.26193476 0.85510355
0.29258147 -0.26283348 0.85508454
0.29304716 -0.26373222 0.85506552
0.29251307 -0.26445144 0.85445505
0.29297996 -0.26535249 0.85443598
0.29344684 -0.26625353 0.85441691
0.29391372 -0.26715457 0.85439783
0.29438061 -0.26805562 0.85437882
0.29385376 -0.26878875 0.85376799
0.29432184 -0.26969209 0.85374892
0.29478994 -0.27059546 0.85372978
0.29525802 -0.27149883 0.85371071
0.29572612 -0.2724022 0.85369158
0.2961942 -0.27330554 0.8536725
0.29567569 -0.27405483 0.85306132
0.29614499 -0.27496052 0.85304213
0.29563013 -0.27571672 0.85243094
0.29558936 -0.27738795 0.8518002
0.29508051 -0.27815574 0.85118872
0.29555339 -0.27906841 0.85116941
0.29504809 -0.27984318 0.85055768
0.29454523 -0.2806226 0.8499459
0.29404479 -0.28140664 0.84933406
0.29354671 -0.28219533 0.84872204
0.29402441 -0.28311723 0.84870255
0.29352996 -0.28391287 0.84809047
0.29448771 -0.2857613 0.84805137
0.25814778 -0.20276019 0.85545307
0.25861704 -0.20366588 0.85543388
0.25908634 -0.20457155 0.85541475
0.25955564 -0.20547724 0.85539556
0.26157075 -0.20761344 0.85594344
0.26203883 -0.20851681 0.85592437
0.2625069 -0.20942017 0.85590523
0.26297498 -0.21032351 0.8558861
0.26344308 -0.21122691 0.85586703
0.26391116 -0.21213025 0.8558479
0.26437926 -0.21303365 0.85582882
0.26484734 -0.21393698 0.85580969
0.26531541 -0.21484035 0.85579062
0.26578349 -0.21574372 0.85577148
0.26731607 -0.21694875 0.85633898
0.26778296 -0.21784979 0.85631996
0.26824984 -0.21875083 0.85630089
0.26871672 -0.21965188 0.85628182
0.26918361 -0.22055292 0.85626274
0.26965049 -0.22145396 0.85624373
0.27011737 -0.22235504 0.85622466
0.27058426 -0.22325608 0.85620558
0.27105114 -0.22415709 0.85618651
0.27151802 -0.22505815 0.8561675
0.27198491 -0.22595921 0.85614842
0.27245179 -0.22686026 0.85612935
0.27291867 -0.22776131 0.85611027
0.27338555 -0.22866237 0.85609126
0.27385244 -0.22956339 0.85607219
0.27431932 -0.23046444 0.85605311
0.2747862 -0.2313655 0.85603404
0.27525309 -0.23226655 0.85601503
0.27571997 -0.2331676 0.85599595
0.27618685 -0.23406863 0.85597688
0.27665374 -0.23496968 0.85595781
0.27712062 -0.23587073 0.85593879
0.2775875 -0.23677178 0.85591972
0.27805439 -0.23767284 0.85590065
0.27852127 -0.23857389 0.85588157
0.27898815 -0.23947491 0.85586256
0.27945504 -0.24037597 0.85584348
0.27992192 -0.24127702 0.85582441
0.2803888 -0.24217807 0.85580534
0.28085569 -0.24307913 0.85578632
0.28132257 -0.24398015 0.85576725
0.28178945 -0.2448812 0.85574818
0.28225634 -0.24578226 0.8557291
0.28272322 -0.2466833 0.85571009
0.2831901 -0.24758436 0.85569102
0.28365698 -0.2484854 0.85567194
0.28412387 -0.24938643 0.85565287
0.28459075 -0.25028747 0.85563385
0.28505763 -0.25118852 0.85561478
0.28552452 -0.25208959 0.85559571
0.2859914 -0.25299063 0.85557663
0.28645828 -0.25389168 0.85555762
0.28692517 -0.25479275 0.85553855
0.28739205 -0.25569379 0.85551947
0.28785893 -0.25659484 0.8555004
0.28832582 -0.25749588 0.85548139
0.2887927 -0.25839692 0.85546231
0.28925958 -0.25929797 0.85544324
0.28972647 -0.26019901 0.85542417
0.29019335 -0.26110005 0.85540515
0.29166475 -0.26218688 0.85597521
0.29213044 -0.2630856 0.8559562
0.29259613 -0.26398435 0.85593718
0.29206088 -0.26470423 0.85532892
0.29252777 -0.2656053 0.85530984
0.29299465 -0.26650634 0.85529077
0.29346153 -0.26740739 0.8552717
0.29392841 -0.26830843 0.85525268
0.29340041 -0.26904219 0.85464412
0.29386848 -0.26994553 0.85462505
0.29433659 -0.2708489 0.85460591
0.29480466 -0.27175227 0.85458684
0.29527277 -0.27265564 0.85456771
0.29574084 -0.27355897 0.85454863
0.29522121 -0.27430892 0.85393965
0.29569048 -0.27521461 0.85392052
0.29517445 -0.27597147 0.85331154
0.29513249 -0.27764332 0.85268307
0.29462248 -0.27841181 0.85207385
0.29509535 -0.27932441 0.85205454
0.29458889 -0.2800999 0.85144508
0.29408491 -0.28087994 0.8508355
0.29358327 -0.28166467 0.85022587
0.29308403 -0.28245395 0.84961617
0.2935617 -0.28337586 0.84959668
0.29306611 -0.28417215 0.8489868
0.29354501 -0.28509635 0.84896725
0.29402387 -0.28602058 0.8489477
0.29353303 -0.28682607 0.84833759
0.25816256 -0.20391998 0.85631222
0.25863183 -0.20482564 0.85629308
0.26158547 -0.20877025 0.8568005
0.26205355 -0.20967361 0.85678136
0.26252162 -0.21057695 0.85676229
0.26298973 -0.21148035 0.85674316
0.2634578 -0.21238369 0.85672402
0.26392591 -0.21328709 0.85670495
0.26439399 -0.21419042 0.85668582
0.26486206 -0.21509379 0.85666674
0.26639697 -0.21630046 0.85723191
0.26686385 -0.21720153 0.85721284
0.26733074 -0.21810257 0.85719383
0.26779762 -0.21900362 0.85717475
0.2682645 -0.21990466 0.85715568
0.26873139 -0.2208057 0.85713661
0.26919827 -0.22170675 0.85711759
0.26966515 -0.22260782 0.85709852
0.27118933 -0.22379363 0.85766423
0.27165502 -0.22469234 0.85764521
0.27212068 -0.22559106 0.8576262
0.27153268 -0.22621199 0.85702229
0.27199957 -0.22711304 0.85700321
0.27246645 -0.2280141 0.85698414
0.27293333 -0.22891515 0.85696512
0.27340022 -0.22981617 0.85694605
0.2738671 -0.23071723 0.85692698
0.27433398 -0.23161829 0.8569079
0.27480087 -0.23251933 0.85688889
0.27526775 -0.23342039 0.85686982
0.27573463 -0.23432142 0.85685074
0.27620152 -0.23522246 0.85683167
0.2766684 -0.23612352 0.85681266
0.27713528 -0.23702456 0.85679358
0.27760217 -0.23792562 0.85677451
0.27806905 -0.23882668 0.85675544
0.27853593 -0.23972769 0.85673642
0.27900282 -0.24062875 0.85671735
0.2794697 -0.24152981 0.85669827
0.27993658 -0.24243085 0.8566792
0.28040347 -0.24333191 0.85666019
0.28087035 -0.24423294 0.85664111
0.28133723 -0.24513398 0.85662204
0.28180411 -0.24603504 0.85660297
0.282271 -0.24693608 0.85658395
0.28273788 -0.24783714 0.85656488
0.28320476 -0.24873818 0.85654581
0.28367165 -0.24963921 0.85652673
0.28413853 -0.25054026 0.85650772
0.28460541 -0.2514413 0.85648865
0.2850723 -0.25234237 0.85646957
0.28553918 -0.25324342 0.8564505
0.28600606 -0.25414446 0.85643148
0.28647295 -0.25504553 0.85641241
0.28693983 -0.25594658 0.85639334
0.28740671 -0.25684762 0.85637426
0.2878736 -0.25774866 0.85635525
0.28834048 -0.25864971 0.85633618
0.28880736 -0.25955075 0.8563171
0.28927425 -0.26045179 0.85629803
0.28974113 -0.26135284 0.85627902
0.29121369 -0.26243904 0.85684681
0.29167938 -0.26333779 0.8568278
0.29214507 -0.26423651 0.85680878
0.29261076 -0.26513523 0.85678977
0.29207554 -0.26585808 0.85618371
0.29254243 -0.26675913 0.85616463
0.29300931 -0.26766017 0.85614556
0.29347619 -0.26856121 0.85612655
0.29394308 -0.26946229 0.85610747
0.29341513 -0.27019897 0.85550117
0.29388323 -0.27110234 0.85548204
0.29435131 -0.27200571 0.85546297
0.29481941 -0.27290908 0.85544384
0.29528749 -0.27381241 0.85542476
0.29476666 -0.27456301 0.85481799
0.29523596 -0.27546871 0.85479885
0.29471877 -0.27622622 0.85419214
0.29467565 -0.27789873 0.85356593
0.29416448 -0.27866787 0.85295892
0.29463735 -0.27958047 0.85293961
0.29412973 -0.28035659 0.85233241
0.29460382 -0.28127152 0.85231304
0.29312176 -0.28192264 0.85111773
0.29262137 -0.28271264 0.85051024
0.29212341 -0.28350723 0.84990269
0.2926023 -0.28443146 0.84988314
0.29308119 -0.28535569 0.84986359
0.25723872 -0.20326838 0.8572098
0.25770801 -0.20417407 0.85719061
0.25817728 -0.20507973 0.85717148
0.25864655 -0.20598543 0.85715228
0.26066399 -0.20812032 0.8576957
0.26113209 -0.20902368 0.85767663
0.26160017 -0.20992705 0.85765749
0.26206824 -0.21083039 0.85763836
0.26253635 -0.21173379 0.85761929
0.26300442 -0.21263713 0.85760015
0.2634725 -0.21354052 0.85758108
0.26394057 -0.21444386 0.85756195
0.26440865 -0.21534723 0.85754287
0.26594478 -0.21655324 0.85810578
0.26641166 -0.21745431 0.85808671
0.26687855 -0.21835536 0.85806769
0.26734543 -0.2192564 0.85804862
0.26781231 -0.22015744 0.85802954
0.26827919 -0.22105849 0.85801047
0.26874608 -0.22195953 0.85799146
0.26921296 -0.2228606 0.85797238
0.26967984 -0.22376165 0.85795331
0.27120399 -0.2249445 0.85851687
0.27166966 -0.22584322 0.85849786
0.27213535 -0.22674197 0.85847884
0.27154738 -0.22736582 0.85787708
0.27201426 -0.22826688 0.857858
0.27248114 -0.22916794 0.85783899
0.27294803 -0.23006895 0.85781991
0.27341491 -0.23097001 0.85780084
0.27388179 -0.23187107 0.85778177
0.27434868 -0.23277211 0.85776275
0.27481556 -0.23367317 0.85774368
0.27528244 -0.2345742 0.85772461
0.27574933 -0.23547524 0.85770553
0.27621621 -0.2363763 0.85768652
0.27668309 -0.23727734 0.85766745
0.27714998 -0.2381784 0.85764837
0.27657884 -0.23883469 0.85704607
0.27808374 -0.23998047 0.85761029
0.27855062 -0.24088153 0.85759121
0.27901751 -0.24178259 0.85757214
0.27845117 -0.24244814 0.85696965
0.27891928 -0.2433515 0.85695052
0.28041816 -0.24448572 0.85751498
0.28088504 -0.24538676 0.8574959
0.28135192 -0.24628782 0.85747683
0.28181881 -0.24718887 0.85745782
0.28228569 -0.24808992 0.85743874
0.28275257 -0.24899097 0.85741967
0.28321946 -0.249892 0.8574006
0.28368634 -0.25079304 0.85738158
0.28415322 -0.25169408 0.85736251
0.28462011 -0.25259516 0.85734344
0.28508699 -0.2534962 0.85732436
0.28555387 -0.25439724 0.85730535
0.28602076 -0.25529832 0.85728627
0.28648764 -0.25619936 0.8572672
0.28695452 -0.2571004 0.85724813
0.28742141 -0.25800145 0.85722911
0.28788829 -0.25890249 0.85721004
0.28835517 -0.25980353 0.85719097
0.28882205 -0.26070458 0.85717189
0.28928894 -0.26160562 0.85715288
0.29076266 -0.2626912 0.85771847
0.29122835 -0.26358992 0.85769945
0.29169405 -0.26448867 0.85768044
0.29115647 -0.26520979 0.85707664
0.29162335 -0.26611087 0.85705757
0.29209024 -0.26701191 0.8570385
0.29255712 -0.26791295 0.85701942
0.293024 -0.268814 0.85700041
0.29349089 -0.26971507 0.85698134
0.29395777 -0.27061611 0.85696226
0.29342985 -0.27135578 0.85635817
0.29389793 -0.27225915 0.8563391
0.294366 -0.27316251 0.85631996
0.29483408 -0.27406585 0.85630089
0.29431212 -0.27481711 0.85569644
0.29478142 -0.2757228 0.85567725
0.29426306 -0.27648097 0.85507274
0.29421878 -0.2781541 0.8544488
0.29370645 -0.27892387 0.85384405
0.29417932 -0.27983654 0.85382473
0.29367054 -0.28061327 0.85321975
0.29414463 -0.28152823 0.85320038
0.29266024 -0.28218061 0.85200959
0.29215869 -0.28297126 0.85140437
0.29165956 -0.28376651 0.85079902
0.2567842 -0.20352247 0.85808814
0.25725347 -0.20442817 0.85806894
0.25772277 -0.20533383 0.85804981
0.25819206 -0.20623952 0.85803062
0.25866133 -0.20714518 0.85801148
0.2591306 -0.20805088 0.85799235
0.26067874 -0.20927712 0.85855275
0.26114681 -0.21018049 0.85853362
0.26161489 -0.21108383 0.85851455
0.26208299 -0.21198723 0.85849541
0.26255107 -0.21289057 0.85847628
0.26301914 -0.21379396 0.85845721
0.26348722 -0.2146973 0.85843807
0.2639553 -0.21560067 0.858419
0.26549259 -0.21680605 0.85897964
0.26595947 -0.21770713 0.85896057
0.26642635 -0.21860817 0.85894156
0.26689324 -0.21950921 0.85892248
0.26736012 -0.22041026 0.85890341
0.267827 -0.2213113 0.85888433
0.26829389 -0.22221234 0.85886532
0.26876077 -0.22311342 0.85884625
0.26922765 -0.22401446 0.85882717
0.26969454 -0.22491547 0.8588081
0.27121863 -0.22609535 0.85936946
0.27168432 -0.2269941 0.85935044
0.27109519 -0.22761863 0.85875094
0.27156207 -0.22851969 0.85873187
0.27202895 -0.22942075 0.85871285
0.27249584 -0.23032176 0.85869378
0.27296272 -0.23122282 0.85867471
0.2734296 -0.23212388 0.85865563
0.27389649 -0.23302492 0.85863662
0.27436337 -0.23392598 0.85861754
0.27483025 -0.23482701 0.85859847
0.27529714 -0.23572806 0.8585794
0.27576402 -0.23662911 0.85856038
0.2762309 -0.23753016 0.85854131
0.27669778 -0.23843122 0.85852224
0.27716467 -0.23933227 0.85850316
0.27659357 -0.23999149 0.85790306
0.27706167 -0.24089487 0.85788399
0.27752975 -0.24179822 0.85786486
0.27799782 -0.24270158 0.85784578
0.27846593 -0.24360494 0.85782665
0.278934 -0.24450831 0.85780752
0.27940208 -0.24541166 0.85778844
0.28089973 -0.24654064 0.85835069
0.28033823 -0.24721839 0.85775024
0.2818335 -0.24834274 0.85831261
0.28230038 -0.24924378 0.85829353
0.28276727 -0.25014481 0.85827446
0.28323415 -0.25104588 0.85825545
0.28370103 -0.25194693 0.85823637
0.28416792 -0.25284797 0.8582173
0.2846348 -0.25374901 0.85819823
0.28510168 -0.25465006 0.85817921
0.28556857 -0.2555511 0.85816014
0.28603545 -0.25645214 0.85814106
0.28650233 -0.25735319 0.85812199
0.28696921 -0.25825423 0.85810298
0.2874361 -0.2591553 0.8580839
0.28790298 -0.26005635 0.85806483
0.28836986 -0.26095739 0.85804576
0.28984594 -0.26204461 0.85860908
0.29031163 -0.26294333 0.85859007
0.29077733 -0.26384205 0.85857105
0.29124302 -0.26474079 0.85855204
0.29070428 -0.26546264 0.85795051
0.29117116 -0.26636368 0.85793144
0.29163805 -0.26726472 0.85791236
0.29210493 -0.26816577 0.85789329
0.29257181 -0.26906681 0.85787427
0.2930387 -0.26996785 0.8578552
0.29350558 -0.2708689 0.85783613
0.2929765 -0.27160922 0.8572343
0.29344457 -0.27251258 0.85721523
0.29391265 -0.27341595 0.85719609
0.29438072 -0.27431929 0.85717702
0.29385763 -0.2750712 0.85657477
0.2943269 -0.2759769 0.85655558
0.29380739 -0.27673572 0.8559534
0.29376194 -0.27840951 0.85533166
0.29324844 -0.27917993 0.85472912
0.29372132 -0.2800926 0.8547098
0.29321137 -0.28086996 0.85410714
0.29270387 -0.28165197 0.8535043
0.29219878 -0.28243864 0.85290146
0.29169604 -0.28322989 0.85229844
0.29119575 -0.28402579 0.85169536
0.29167464 -0.28495002 0.85167581
0.29117793 -0.28575289 0.85107261
0.25524247 -0.20344275 0.85838962
0.25571296 -0.20435077 0.85837042
0.25726822 -0.20558792 0.8589282
0.25773752 -0.20649362 0.85890901
0.25820678 -0.20739928 0.85888988
0.25867605 -0.20830497 0.85887074
0.26022536 -0.20953059 0.85942888
0.26069343 -0.21043396 0.85940975
0.26116151 -0.2113373 0.85939062
0.26162961 -0.2122407 0.85937154
0.26209769 -0.21314403 0.85935241
0.26256579 -0.21404743 0.85933334
0.26303387 -0.21495077 0.8593142
0.26350194 -0.21585414 0.85929513
0.26504037 -0.21705884 0.85985357
0.26550725 -0.21795991 0.85983449
0.26597413 -0.21886095 0.85981548
0.26644102 -0.219762 0.8597964
0.2669079 -0.22066304 0.85977733
0.26737478 -0.22156408 0.85975826
0.26784167 -0.22246513 0.85973924
0.26830855 -0.2233662 0.85972017
0.26983622 -0.22455007 0.86027914
0.27030188 -0.22544879 0.86026013
0.27076757 -0.22634751 0.86024112
0.27123326 -0.22724625 0.8602221
0.27169895 -0.22814499 0.86020309
0.27216464 -0.22904371 0.86018407
0.2726303 -0.22994244 0.86016506
0.27204362 -0.23057455 0.8595677
0.2725105 -0.23147561 0.85954863
0.27297738 -0.23237666 0.85952955
0.27344427 -0.23327771 0.85951054
0.27391115 -0.23417877 0.85949147
0.27437803 -0.2350798 0.85947239
0.27484491 -0.23598084 0.85945332
0.2753118 -0.2368819 0.85943431
0.27577868 -0.23778294 0.85941523
0.27624556 -0.238684 0.85939616
0.27567211 -0.2393416 0.85879833
0.27614018 -0.24024495 0.85877919
0.27660829 -0.24114834 0.85876012
0.27707636 -0.24205169 0.85874099
0.27754444 -0.24295504 0.85872191
0.27801251 -0.24385841 0.85870278
0.27848059 -0.24476178 0.85868365
0.27894869 -0.24566513 0.85866457
0.27941677 -0.2465685 0.85864544
0.2809144 -0.24769446 0.8592056
0.28138128 -0.24859552 0.85918653
0.28184816 -0.24949656 0.85916746
0.28231505 -0.25039759 0.85914838
0.28278193 -0.25129867 0.85912937
0.28324881 -0.25219971 0.8591103
0.2837157 -0.25310075 0.85909122
0.28418258 -0.2540018 0.85907215
0.28464946 -0.25490284 0.85905313
0.28511634 -0.25580388 0.85903406
0.28558323 -0.25670493 0.85901499
0.28605011 -0.25760597 0.85899591
0.28651699 -0.25850701 0.8589769
0.28698388 -0.25940809 0.85895783
0.28745076 -0.26030913 0.85893875
0.28791764 -0.26121017 0.85891968
0.28939492 -0.26229677 0.85948074
0.28986058 -0.26319548 0.85946172
0.29032627 -0.26409423 0.85944271
0.29079196 -0.26499295 0.8594237
0.29025206 -0.26571542 0.85882443
0.29071894 -0.26661646 0.85880536
0.292189 -0.26768917 0.85936666
0.29265469 -0.26858789 0.85934764
0.29211959 -0.26931959 0.8587482
0.29258648 -0.27022064 0.85872912
0.29305336 -0.27112168 0.85871005
0.29252312 -0.27186269 0.85811043
0.29299119 -0.27276605 0.85809135
0.2934593 -0.27366942 0.85807222
0.29392737 -0.27457279 0.85805315
0.29340309 -0.2753253 0.85745311
0.29387236 -0.27623099 0.85743397
0.29335168 -0.27699047 0.85683399
0.29330507 -0.27866492 0.85621452
0.29279041 -0.27943599 0.85561424
0.29326329 -0.2803486 0.85559493
0.29275218 -0.28112665 0.85499448
0.29322627 -0.28204161 0.8549751
0.29173726 -0.2826966 0.85379326
0.29123336 -0.28348857 0.85319251
0.29073191 -0.28428513 0.85259169
0.29023284 -0.28508627 0.85199082
0.29071292 -0.28601283 0.85197121
0.25478679 -0.2036975 0.85927022
0.25728297 -0.20674771 0.85978734
0.25775227 -0.20765337 0.85976821
0.25822157 -0.20855907 0.85974908
0.25869083 -0.20946476 0.85972989
0.26024008 -0.2106874 0.86028588
0.26070815 -0.21159074 0.8602668
0.26117626 -0.21249413 0.86024767
0.26164433 -0.21339747 0.86022854
0.26211244 -0.21430087 0.86020947
0.26258051 -0.21520421 0.86019033
0.26304859 -0.21610758 0.86017126
0.26458818 -0.21731165 0.86072743
0.26505506 -0.21821272 0.86070836
0.26552194 -0.21911377 0.86068934
0.26598883 -0.22001481 0.86067027
0.26645571 -0.22091585 0.8606512
0.26692259 -0.2218169 0.86063212
0.26738948 -0.22271794 0.86061311
0.26785636 -0.22361901 0.86059403
0.26938519 -0.22480223 0.86115074
0.26985085 -0.22570094 0.86113173
0.27031654 -0.22659966 0.86111271
0.27078223 -0.22749841 0.8610937
0.27124792 -0.22839715 0.86107469
0.27171361 -0.22929586 0.86105567
0.27217928 -0.2301946 0.86103666
0.27264497 -0.23109335 0.86101764
0.27311063 -0.23199207 0.86099863
0.27252519 -0.23262948 0.86040342
0.27299207 -0.23353052 0.8603844
0.27345896 -0.23443158 0.86036533
0.27392584 -0.23533261 0.86034626
0.27439272 -0.23623365 0.86032718
0.27485961 -0.23713471 0.86030817
0.27532649 -0.23803575 0.8602891
0.27475065 -0.23869166 0.85969353
0.27521876 -0.23959504 0.85967445
0.27568683 -0.24049839 0.85965532
0.27615494 -0.24140178 0.85963625
0.27662301 -0.24230513 0.85961711
0.27709109 -0.24320848 0.85959804
0.27755916 -0.24411185 0.85957891
0.27802724 -0.24501522 0.85955977
0.27849534 -0.24591857 0.8595407
0.27896342 -0.24682194 0.85952157
0.28046221 -0.24794728 0.86007947
0.28092909 -0.24884833 0.86006039
0.28139597 -0.24974938 0.86004132
0.28186285 -0.25065041 0.86002225
0.28232974 -0.25155145 0.86000323
0.28279662 -0.25245249 0.85998416
0.2832635 -0.25335357 0.85996509
0.28373039 -0.25425461 0.85994601
0.28419727 -0.25515565 0.859927
0.28466415 -0.25605673 0.85990793
0.28614977 -0.25715655 0.86046636
0.28661546 -0.25805527 0.86044735
0.28708115 -0.25895399 0.86042833
0.28653169 -0.2596609 0.85983169
0.28699857 -0.26056194 0.85981262
0.28746545 -0.26146299 0.85979354
0.28894389 -0.26254892 0.86035234
0.28940955 -0.26344764 0.86033332
0.28987524 -0.26434636 0.86031431
0.29034093 -0.26524511 0.8602953
0.29080659 -0.26614386 0.86027628
0.29127228 -0.26704258 0.86025727
0.29173797 -0.2679413 0.86023825
0.29220366 -0.26884004 0.86021924
0.2916674 -0.26957241 0.85962206
0.29213428 -0.27047348 0.85960299
0.29260117 -0.27137452 0.85958391
0.29306805 -0.27227557 0.85956484
0.29253784 -0.27301949 0.85896748
0.29300594 -0.27392286 0.85894835
0.29347402 -0.27482623 0.85892928
0.29394209 -0.2757296 0.85891014
0.29341784 -0.27648509 0.85831231
0.292896 -0.27724522 0.85771459
0.29284823 -0.27892029 0.85709739
0.29233241 -0.27969205 0.85649937
0.29280528 -0.28060466 0.85648006
0.29229301 -0.28138337 0.85588181
0.29276711 -0.28229833 0.85586244
0.29127574 -0.28295463 0.85468513
0.29077071 -0.2837472 0.85408664
0.29026809 -0.28454441 0.85348809
0.28976786 -0.28534624 0.85288936
0.28975129 -0.28708157 0.8522709
0.28828156 -0.28777954 0.8510927
0.28876525 -0.28871304 0.85107297
0.25229821 -0.20179912 0.85961694
0.25433108 -0.20395225 0.86015087
0.25635916 -0.20609611 0.86068493
0.25682843 -0.20700181 0.86066574
0.25729772 -0.20790747 0.86064661
0.25776702 -0.20881316 0.86062747
0.25823629 -0.20971885 0.86060828
0.2597867 -0.21094084 0.86116201
0.26025477 -0.21184418 0.86114287
0.26072288 -0.21274757 0.8611238
0.26119095 -0.21365091 0.86110467
0.26165903 -0.21455431 0.86108559
0.2621271 -0.21545765 0.86106646
0.26366907 -0.21666339 0.86162037
0.26413596 -0.21756443 0.86160129
0.26460284 -0.21846551 0.86158222
0.26506972 -0.21936655 0.86156321
0.26553661 -0.22026759 0.86154413
0.26600349 -0.22116864 0.86152506
0.26647037 -0.22206968 0.86150599
0.26693726 -0.22297072 0.86148697
0.26740414 -0.2238718 0.8614679
0.26787102 -0.22477284 0.86144882
0.26833791 -0.22567385 0.86142975
0.26986548 -0.22685179 0.86198437
0.27033117 -0.22775054 0.86196536
0.27079687 -0.22864927 0.86194634
0.27126253 -0.22954799 0.86192733
0.27172822 -0.23044673 0.86190832
0.2711392 -0.23108014 0.86131543
0.27160609 -0.2319812 0.86129636
0.27207297 -0.23288226 0.86127728
0.27253985 -0.2337833 0.86125827
0.27300674 -0.23468436 0.86123919
0.27347362 -0.23558539 0.86122012
0.2739405 -0.23648643 0.86120105
0.27440739 -0.23738749 0.86118203
0.27487427 -0.23828854 0.86116296
0.2742973 -0.2389451 0.86056966
0.27476537 -0.23984848 0.86055058
0.27523345 -0.24075183 0.86053145
0.27570155 -0.24165522 0.86051238
0.27616963 -0.24255857 0.86049324
0.2766377 -0.24346192 0.86047417
0.27814245 -0.24459589 0.86102957
0.27757388 -0.24526866 0.8604359
0.27804196 -0.24617201 0.86041683
0.2795431 -0.24729902 0.86097234
0.28000998 -0.24820006 0.86095333
0.28047687 -0.24910112 0.86093426
0.28094375 -0.25000215 0.86091518
0.28141063 -0.25090319 0.86089611
0.28187752 -0.25180423 0.8608771
0.2823444 -0.25270528 0.86085802
0.28281128 -0.25360635 0.86083895
0.28327817 -0.25450739 0.86081988
0.28374505 -0.25540844 0.86080086
0.28421193 -0.25630951 0.86078179
0.28467882 -0.25721055 0.86076272
0.2861644 -0.2583074 0.86131901
0.28561258 -0.25901264 0.86072463
0.28607947 -0.25991368 0.86070555
0.28654635 -0.26081473 0.86068648
0.28701323 -0.26171577 0.86066741
0.2884928 -0.26280105 0.861224
0.28895849 -0.26369977 0.86120498
0.28942418 -0.26459849 0.86118597
0.28988987 -0.26549724 0.86116695
0.28934765 -0.26622099 0.86057216
0.29082122 -0.2672947 0.86112893
0.29028141 -0.2680231 0.86053401
0.29175261 -0.26909217 0.8610909
0.29121518 -0.26982519 0.86049592
0.29168206 -0.27072626 0.86047685
0.29214895 -0.27162731 0.86045778
0.29261583 -0.27252835 0.8604387
0.29208446 -0.27327293 0.85984361
0.29255253 -0.2741763 0.85982448
0.29302061 -0.27507967 0.85980541
0.29348871 -0.27598304 0.85978627
0.2929633 -0.27673918 0.8591907
0.29343259 -0.27764484 0.85917157
0.29291075 -0.27840796 0.858576
0.29286304 -0.28008601 0.857961
0.29234725 -0.28086072 0.85736513
0.29183382 -0.28164005 0.8567692
0.29230791 -0.28255498 0.85674983
0.29081428 -0.2832126 0.85557699
0.29030803 -0.28400582 0.85498071
0.28980425 -0.28480369 0.85438442
0.28880388 -0.28641331 0.85319144
0.28830725 -0.28722507 0.85259473
0.2878131 -0.28804144 0.85199803
0.25184137 -0.20205453 0.8604998
0.25231305 -0.20296484 0.86048055
0.2538754 -0.204207 0.86103147
0.25481638 -0.20602301 0.86099309
0.25637394 -0.2072559 0.86154413
0.25684321 -0.20816156 0.861525
0.25731248 -0.20906726 0.86150587
0.2577818 -0.20997295 0.86148667
0.25933334 -0.21119428 0.86203814
0.25980142 -0.21209762 0.86201906
0.26026952 -0.21300101 0.86199993
0.2607376 -0.21390435 0.8619808
0.26120567 -0.21480775 0.86196172
0.26167375 -0.21571109 0.86194259
0.26321688 -0.2169162 0.86249423
0.26368377 -0.21781725 0.86247516
0.26415065 -0.21871832 0.86245608
0.26461753 -0.21961936 0.86243707
0.26508442 -0.22052041 0.862418
0.2655513 -0.22142145 0.86239892
0.26601818 -0.22232249 0.86237985
0.26648507 -0.22322354 0.86236084
0.26695195 -0.22412461 0.86234176
0.26741883 -0.22502565 0.86232269
0.26788571 -0.22592667 0.86230361
0.2683526 -0.22682773 0.8622846
0.26881948 -0.22772878 0.86226553
0.26928636 -0.22862983 0.86224645
0.26975325 -0.22953089 0.86222738
0.27022013 -0.23043194 0.86220837
0.27068701 -0.23133296 0.86218929
0.2711539 -0.23223402 0.86217022
0.27162078 -0.23313507 0.86215115
0.27208766 -0.23403612 0.86213213
0.27255455 -0.23493718 0.86211306
0.27302143 -0.2358382 0.86209399
0.27348831 -0.23673925 0.86207491
0.2739552 -0.23764031 0.8620559
0.27337584 -0.23829518 0.86146492
0.27384394 -0.23919854 0.86144578
0.27431202 -0.24010192 0.86142671
0.27478009 -0.24100527 0.86140758
0.2752482 -0.24190865 0.8613885
0.27571627 -0.24281201 0.86136937
0.27618435 -0.24371536 0.8613503
0.27769026 -0.2448487 0.86190343
0.27815714 -0.24574973 0.86188436
0.27862403 -0.24665077 0.86186528
0.27909091 -0.24755183 0.86184621
0.27955779 -0.24845287 0.86182719
0.28002468 -0.24935393 0.86180812
0.28049156 -0.25025499 0.86178905
0.28095844 -0.251156 0.86176997
0.28142533 -0.25205708 0.86175096
0.28189221 -0.25295812 0.86173189
0.28235909 -0.25385916 0.86171281
0.28282598 -0.25476021 0.86169374
0.28329286 -0.25566125 0.86167473
0.28375974 -0.25656229 0.86165565
0.28524768 -0.25766081 0.86220962
0.28571337 -0.25855953 0.8621906
0.28617907 -0.2594583 0.86217165
0.28664473 -0.26035702 0.86215264
0.28609416 -0.26106754 0.86156034
0.28656104 -0.26196858 0.86154127
0.28804177 -0.26305321 0.86209559
0.28850746 -0.26395193 0.86207658
0.28897315 -0.26485068 0.86205757
0.28842857 -0.26557279 0.86146504
0.28889546 -0.26647383 0.86144602
0.28936234 -0.26737487 0.86142695
0.28982922 -0.26827592 0.86140788
0.29029611 -0.26917696 0.8613888
0.29076299 -0.270078 0.86136979
0.29122987 -0.27097905 0.86135072
0.29169676 -0.27188009 0.86133164
0.29216364 -0.27278113 0.86131257
0.2916311 -0.27352637 0.86071974
0.29209918 -0.27442974 0.86070061
0.29256725 -0.27533311 0.86068153
0.29303536 -0.27623647 0.8606624
0.29250878 -0.27699327 0.8600691
0.29297805 -0.27789894 0.86004996
0.29245508 -0.27866271 0.8594566
0.2924062 -0.28034142 0.85884386
0.29188925 -0.28111672 0.85825026
0.29236215 -0.28202936 0.85823095
0.29184875 -0.2828117 0.85763717
0.29035276 -0.28347063 0.85646886
0.28984538 -0.2842645 0.85587484
0.28934044 -0.28506297 0.85528076
0.28833771 -0.2866739 0.85409224
0.28783995 -0.28748631 0.8534978
0.2873446 -0.28830335 0.85290331
0.28685161 -0.28912503 0.85230875
0.25138453 -0.20230991 0.86138266
0.25294924 -0.20355377 0.86193126
0.2534197 -0.20446175 0.86191207
0.25436068 -0.20627776 0.86187369
0.2559194 -0.20750999 0.86242247
0.25638869 -0.20841566 0.86240333
0.25685799 -0.20932135 0.8623842
0.25732726 -0.21022704 0.86236501
0.25887996 -0.21144775 0.8629142
0.25934803 -0.21235108 0.86289513
0.25981614 -0.21325448 0.862876
0.26028422 -0.21415782 0.86285686
0.26075232 -0.21506122 0.86283779
0.2612204 -0.21596456 0.86281866
0.26276466 -0.21716899 0.86336815
0.26323155 -0.21807003 0.86334908
0.26369843 -0.2189711 0.86333001
0.26416531 -0.21987215 0.86331099
0.2646322 -0.22077319 0.86329192
0.26509908 -0.22167423 0.86327285
0.26556596 -0.22257528 0.86325377
0.26603284 -0.22347632 0.86323476
0.26649973 -0.22437739 0.86321568
0.26696661 -0.22527844 0.86319661
0.26743349 -0.22617945 0.86317754
0.26790038 -0.22708051 0.86315852
0.26836726 -0.22798157 0.86313945
0.26883414 -0.22888261 0.86312038
0.26930103 -0.22978367 0.8631013
0.26976791 -0.23068473 0.86308229
0.27023479 -0.23158574 0.86306322
0.27070168 -0.2324868 0.86304414
0.27116856 -0.23338786 0.86302507
0.27163544 -0.2342889 0.86300606
0.27210233 -0.23518996 0.86298698
0.27256921 -0.23609099 0.86296791
0.27303609 -0.23699203 0.86294883
0.27245438 -0.2376453 0.86236012
0.27292246 -0.23854865 0.86234099
0.27339053 -0.239452 0.86232185
0.27385864 -0.24035539 0.86230278
0.27432671 -0.24125874 0.86228365
0.27583739 -0.24239832 0.86283451
0.27630427 -0.24329938 0.86281544
0.27677116 -0.24420042 0.86279637
0.27723804 -0.24510148 0.86277735
0.27770492 -0.24600251 0.86275828
0.27817181 -0.24690355 0.86273921
0.27863869 -0.24780461 0.86272013
0.27910557 -0.24870566 0.86270112
0.27957246 -0.24960671 0.86268204
0.28003934 -0.25050777 0.86266297
0.28050622 -0.25140879 0.8626439
0.28097311 -0.25230986 0.86262488
0.28143999 -0.2532109 0.86260581
0.28190687 -0.25411195 0.86258674
0.28237376 -0.25501299 0.86256766
0.28284064 -0.25591403 0.86254865
0.28330752 -0.25681508 0.86252958
0.28377441 -0.25771612 0.8625105
0.28526235 -0.25881165 0.86306226
0.28572804 -0.25971043 0.86304331
0.2861937 -0.26060915 0.86302429
0.28564194 -0.26132032 0.86243427
0.28610882 -0.26222137 0.86241519
0.28759074 -0.26330534 0.86296725
0.28805643 -0.26420406 0.86294824
0.28750947 -0.26492453 0.86235803
0.28797635 -0.26582557 0.86233896
0.28844324 -0.26672661 0.86231995
0.28891012 -0.26762766 0.86230087
0.289377 -0.2685287 0.8622818
0.28984389 -0.26942974 0.86226273
0.29031077 -0.27033079 0.86224371
0.29077765 -0.27123183 0.86222464
0.29124454 -0.27213287 0.86220556
0.29171142 -0.27303392 0.86218649
0.29117772 -0.27377984 0.86159581
0.29164582 -0.27468321 0.86157668
0.2921139 -0.27558655 0.8615576
0.29258198 -0.27648991 0.86153847
0.29205427 -0.27724737 0.86094743
0.29252356 -0.27815303 0.8609283
0.2919994 -0.27891746 0.8603372
0.29194936 -0.28059679 0.85972673
0.29143125 -0.28137279 0.85913539
0.29190415 -0.28228542 0.85911608
0.29138958 -0.28306842 0.85852456
0.29087746 -0.28385597 0.85793293
0.28938273 -0.28452313 0.85676891
0.28887662 -0.28532231 0.85617709
0.28787157 -0.28693449 0.8549931
0.28639245 -0.28763175 0.85382837
0.28687614 -0.28856522 0.85380864
0.28540418 -0.28927639 0.85264373
0.28393707 -0.28999686 0.85147858
0.25343451 -0.20562452 0.86277348
0.25499558 -0.2068584 0.86332005
0.25546485 -0.20776409 0.86330086
0.25593415 -0.20866975 0.86328173
0.25640345 -0.20957544 0.86326259
0.25687271 -0.21048114 0.8632434
0.25842661 -0.21170118 0.86379033
0.25889468 -0.21260452 0.8637712
0.25936279 -0.21350792 0.86375213
0.25983086 -0.21441126 0.86373299
0.26029897 -0.21531466 0.86371392
0.26076704 -0.21621799 0.86369479
0.26123512 -0.21712136 0.86367571
0.26277936 -0.21832281 0.86422294
0.26324624 -0.21922389 0.86420387
0.26371312 -0.22012493 0.86418486
0.26418 -0.22102597 0.86416578
0.26464689 -0.22192702 0.86414671
0.26511377 -0.22282806 0.86412764
0.26558065 -0.2237291 0.86410862
0.26604754 -0.22463018 0.86408955
0.26651442 -0.22553122 0.86407048
0.2669813 -0.22643223 0.8640514
0.26744819 -0.22733329 0.86403239
0.26791507 -0.22823435 0.86401331
0.26838195 -0.22913539 0.86399424
0.26884884 -0.23003645 0.86397517
0.26931572 -0.23093751 0.86395615
0.2697826 -0.23183852 0.86393708
0.27024949 -0.23273958 0.86391801
0.27071637 -0.23364064 0.86389893
0.27118325 -0.23454168 0.86387992
0.27165014 -0.23544274 0.86386085
0.27211702 -0.23634377 0.86384177
0.2725839 -0.23724481 0.8638227
0.27305079 -0.23814587 0.86380368
0.2724691 -0.23880209 0.86321712
0.27293718 -0.23970544 0.86319798
0.27340528 -0.24060883 0.86317891
0.27387336 -0.24151218 0.86315978
0.27434146 -0.24241556 0.8631407
0.27585208 -0.24355216 0.8636893
0.27631897 -0.24445321 0.86367023
0.27678585 -0.24535426 0.86365122
0.27725273 -0.24625529 0.86363214
0.27771962 -0.24715634 0.86361307
0.2781865 -0.2480574 0.863594
0.27865338 -0.24895844 0.86357498
0.27912027 -0.2498595 0.86355591
0.27958715 -0.25076056 0.86353683
0.28005403 -0.25166157 0.86351776
0.28052092 -0.25256264 0.86349875
0.2809878 -0.25346369 0.86347967
0.28145468 -0.25436473 0.8634606
0.28192157 -0.25526577 0.86344153
0.28238845 -0.25616682 0.86342251
0.28285533 -0.25706786 0.86340344
0.28332222 -0.2579689 0.86338437
0.2837891 -0.25886995 0.86336529
0.28527698 -0.25996256 0.86391485
0.28574264 -0.26086128 0.86389589
0.28518975 -0.26157311 0.86330813
0.28565663 -0.26247415 0.86328906
0.28612351 -0.26337519 0.86327004
0.2865904 -0.26427627 0.86325097
0.28705728 -0.26517731 0.8632319
0.28752416 -0.26607835 0.86321282
0.28799105 -0.2669794 0.86319381
0.28845793 -0.26788044 0.86317474
0.28892481 -0.26878148 0.86315566
0.2893917 -0.26968253 0.86313659
0.28985858 -0.27058357 0.86311758
0.29032546 -0.27148461 0.8630985
0.29079235 -0.27238566 0.86307943
0.29025629 -0.27312991 0.86249101
0.29072437 -0.27403328 0.86247194
0.29119247 -0.27493665 0.86245281
0.29166055 -0.27583998 0.86243373
0.29212862 -0.27674335 0.8624146
0.29159972 -0.27750146 0.86182582
0.29206902 -0.27840713 0.86180669
0.29253829 -0.27931279 0.8617875
0.29149249 -0.2808522 0.86060959
0.29097322 -0.28162885 0.86002046
0.29144612 -0.28254145 0.86000115
0.29093039 -0.28332508 0.8594119
0.29041713 -0.28411329 0.85882252
0.28892004 -0.28478175 0.85766298
0.28841278 -0.28558159 0.85707343
0.2874054 -0.28719509 0.85589391
0.28592396 -0.28789365 0.85473371
0.28640765 -0.28882712 0.85471398
0.28493336 -0.28953961 0.85355353
0.25250834 -0.20497122 0.86367333
0.25407177 -0.20620683 0.86421752
0.25454107 -0.20711249 0.86419839
0.25501037 -0.20801818 0.86417919
0.25547963 -0.20892385 0.86416006
0.2559489 -0.20982954 0.86414093
0.25750518 -0.21105126 0.8646856
0.25797325 -0.21195462 0.86466646
0.25844133 -0.21285796 0.86464739
0.25890943 -0.21376136 0.86462826
0.25937751 -0.2146647 0.86460912
0.25984561 -0.2155681 0.86459005
0.26031369 -0.21647143 0.86457092
0.26078176 -0.2173748 0.86455184
0.26232716 -0.21857563 0.86509681
0.26279405 -0.2194767 0.86507773
0.26326093 -0.22037774 0.86505872
0.26372781 -0.22127879 0.86503965
0.2641947 -0.22217983 0.86502057
0.26466158 -0.22308087 0.8650015
0.26512846 -0.22398192 0.86498249
0.26559535 -0.22488299 0.86496341
0.26606223 -0.22578403 0.86494434
0.26652911 -0.22668505 0.86492527
0.266996 -0.22758611 0.86490625
0.26746288 -0.22848716 0.86488718
0.26792976 -0.22938821 0.8648681
0.26839665 -0.23028927 0.86484903
0.26886353 -0.23119032 0.86483002
0.26933041 -0.23209134 0.86481094
0.2697973 -0.2329924 0.86479187
0.27026418 -0.23389345 0.8647728
0.27073106 -0.2347945 0.86475378
0.27119794 -0.23569556 0.86473471
0.27166483 -0.23659658 0.86471564
0.27213171 -0.23749763 0.86469656
0.27259859 -0.23839869 0.86467755
0.27306548 -0.23929973 0.86465847
0.27248383 -0.23995888 0.86407411
0.27399924 -0.24110185 0.86462033
0.27446613 -0.24200286 0.86460131
0.27493301 -0.24290392 0.86458224
0.27539989 -0.24380498 0.86456317
0.27586678 -0.24470602 0.86454409
0.27633366 -0.24560708 0.86452508
0.27680054 -0.24650811 0.86450601
0.27726743 -0.24740915 0.86448693
0.27773431 -0.24831021 0.86446786
0.27820119 -0.24921125 0.86444885
0.27866808 -0.2501123 0.86442977
0.27913496 -0.25101334 0.8644107
0.27960184 -0.25191438 0.86439162
0.28006873 -0.25281543 0.86437261
0.28053561 -0.25371647 0.86435354
0.28100249 -0.25461754 0.86433446
0.28146937 -0.25551859 0.86431539
0.28193626 -0.25641963 0.86429638
0.28240314 -0.2573207 0.8642773
0.28287002 -0.25822175 0.86425823
0.28333691 -0.25912279 0.86423916
0.28482595 -0.26021475 0.86478651
0.28529161 -0.26111346 0.86476755
0.28473756 -0.26182592 0.864182
0.28520444 -0.26272696 0.86416292
0.28567132 -0.26362801 0.86414391
0.28613821 -0.26452905 0.86412483
0.28660509 -0.26543009 0.86410576
0.28707197 -0.26633114 0.86408669
0.28753886 -0.26723218 0.86406767
0.28800574 -0.26813325 0.8640486
0.28847262 -0.2690343 0.86402953
0.28893951 -0.26993534 0.86401045
0.28940639 -0.27083638 0.86399144
0.28987327 -0.27173746 0.86397237
0.28933483 -0.27247998 0.86338627
0.28980294 -0.27338335 0.86336714
0.29027101 -0.27428672 0.86334807
0.29073912 -0.27519009 0.86332893
0.29120719 -0.27609342 0.86330986
0.29167527 -0.27699679 0.86329073
0.29114521 -0.27775556 0.86270416
0.29161447 -0.27866122 0.86268502
0.29208377 -0.27956688 0.86266583
0.2915585 -0.28033495 0.86207926
0.29150733 -0.28201792 0.8614732
0.29098812 -0.28279752 0.86088628
0.29047123 -0.28358179 0.86029923
0.28995681 -0.28437066 0.85971212
0.28845739 -0.28504044 0.85855711
0.28794894 -0.28584087 0.85796976
0.28693926 -0.28745568 0.85679477
0.28643799 -0.28827 0.85620707
0.28593919 -0.28908902 0.85561931
0.28544268 -0.28991264 0.85503143
0.25205263 -0.20522597 0.86455393
0.25361723 -0.20646092 0.86509591
0.25408652 -0.20736659 0.86507678
0.25455582 -0.20827228 0.86505759
0.25502509 -0.20917794 0.86503845
0.25549436 -0.21008363 0.86501932
0.2570518 -0.21130469 0.86556172
0.25751987 -0.21220806 0.86554259
0.25798795 -0.2131114 0.86552346
0.25845605 -0.2140148 0.86550438
0.25892413 -0.21491814 0.86548525
0.2593922 -0.21582153 0.86546618
0.25986028 -0.21672487 0.86544704
0.26032835 -0.21762824 0.86542797
0.26187494 -0.21882841 0.86597067
0.26234183 -0.21972948 0.8659516
0.26280871 -0.22063053 0.86593258
0.26327559 -0.22153157 0.86591351
0.26374248 -0.22243261 0.86589444
0.26420936 -0.22333366 0.86587536
0.26467624 -0.2242347 0.86585635
0.26514313 -0.22513577 0.86583728
0.26561001 -0.22603682 0.8658182
0.26607689 -0.22693783 0.86579913
0.26654378 -0.22783889 0.86578012
0.26701066 -0.22873995 0.86576104
0.26747754 -0.22964099 0.86574197
0.26794443 -0.23054205 0.86572289
0.26841131 -0.23144311 0.86570388
0.26887819 -0.23234412 0.86568481
0.26934507 -0.23324518 0.86566573
0.26981196 -0.23414624 0.86564666
0.27027884 -0.23504728 0.86562765
0.27074572 -0.23594834 0.86560857
0.27121261 -0.23684937 0.8655895
0.27167949 -0.23775041 0.86557043
0.27214637 -0.23865147 0.86555141
0.27261326 -0.23955251 0.86553234
0.27308014 -0.24045357 0.86551327
0.27354702 -0.24135463 0.86549419
0.27401391 -0.24225564 0.86547518
0.27448079 -0.2431567 0.8654561
0.27494767 -0.24405776 0.86543703
0.27541456 -0.2449588 0.86541796
0.27588144 -0.24585986 0.86539894
0.27634832 -0.24676089 0.86537987
