# .PCD v0.7 - Point Cloud Data file format
VERSION 0.7
FIELDS x y z
SIZE 4 4 4
TYPE F F F
COUNT 1 1 1
WIDTH 1319
HEIGHT 1
VIEWPOINT 0 0 0 1 0 0 0
POINTS 1319
DATA ascii
-0.17125915 -0.034410361 0.25734958
-0.16862197 -0.035131659 0.25290939
-0.080502801 -0.033395745 0.25057995
-0.076088123 -0.035152864 0.25498703
-0.1717287 -0.025721619 0.25714594
-0.16881183 -0.024321305 0.25188026
-0.081321962 -0.024330208 0.2511459
-0.077196158 -0.025263678 0.25557953
-0.17126332 -0.015277218 0.25675821
-0.16914994 -0.014522206 0.25280246
-0.081902131 -0.014681433 0.2520121
-0.077157065 -0.015365274 0.25716504
-0.17082261 -0.0062965518 0.25406921
-0.1687326 -0.0042054923 0.25466093
-0.082681797 -0.0049948306 0.25276616
-0.078025088 -0.005345636 0.25767678
-0.16526154 0.0050232271 0.25473595
-0.15957838 0.0096961223 0.25009635
-0.083650842 0.0052709337 0.25371191
-0.078750066 0.0042785998 0.25858137
-0.16189173 0.013281324 0.25742546
-0.15773739 0.016479513 0.25384581
-0.091635868 0.018661031 0.25150177
-0.085940875 0.015239232 0.25543505
-0.07957945 0.011314511 0.25947785
-0.15324841 0.023390368 0.2555052
-0.14540106 0.027060362 0.25489867
-0.13507441 0.027421217 0.2553806
-0.12518334 0.027137207 0.25521356
-0.11453442 0.026633501 0.25473782
-0.10518573 0.025679311 0.25439712
-0.095119104 0.022614948 0.25523239
-0.088772468 0.020453421 0.25877064
-0.16097549 -0.070426211 0.26799431
-0.15483882 -0.070782565 0.26631209
-0.14497206 -0.071163476 0.26560265
-0.13466917 -0.07160081 0.26522562
-0.1245279 -0.071995102 0.26484802
-0.11520004 -0.072456293 0.26508409
-0.10517792 -0.072874285 0.264891
-0.095322512 -0.073302217 0.26477233
-0.085505523 -0.073773056 0.2651071
-0.075215399 -0.073542006 0.26548079
-0.066068955 -0.072053134 0.26747188
-0.1643268 -0.065022238 0.26488268
-0.15622285 -0.069571733 0.26166117
-0.14763528 -0.069901839 0.26013243
-0.071367711 -0.069469221 0.26065794
-0.063926876 -0.065635659 0.26420814
-0.058594167 -0.064833805 0.26848221
-0.17128986 -0.05290151 0.26733062
-0.1681699 -0.05655193 0.26352501
-0.063788593 -0.054807924 0.26372927
-0.058807015 -0.055953506 0.26850584
-0.1729029 -0.044985197 0.26535752
-0.16975918 -0.049798407 0.2614086
-0.07032036 -0.040597904 0.26043195
-0.065932997 -0.045182094 0.26549596
-0.05988472 -0.049821246 0.26933241
-0.17445543 -0.035326969 0.26471397
-0.071513534 -0.034338158 0.26383543
-0.069194108 -0.038651608 0.26678568
-0.17517865 -0.024880271 0.26501369
-0.073614426 -0.024746895 0.26525679
-0.17427444 -0.014485583 0.26448509
-0.073266231 -0.014661173 0.26500151
-0.17272645 -0.0053695273 0.26507834
-0.16980821 -0.00075498252 0.26076847
-0.073046535 -0.0050475746 0.2634559
-0.068790622 -0.003361471 0.26829091
-0.17097849 0.0029558244 0.26729217
-0.16837877 0.0062468867 0.26390189
-0.073974572 0.0054074647 0.26374871
-0.068862706 0.0033198062 0.26858339
-0.16432293 0.015135414 0.26510084
-0.15972544 0.019330515 0.26055872
-0.082422122 0.018111615 0.26353577
-0.076270968 0.013711159 0.26557016
-0.069579668 0.010032495 0.26983947
-0.16097425 0.021285549 0.26661813
-0.15532345 0.024727389 0.26450747
-0.14521056 0.025860962 0.26501718
-0.13531443 0.025604686 0.2647652
-0.124883 0.025194639 0.26494995
-0.11507693 0.024669671 0.26498526
-0.10530924 0.024005374 0.26513869
-0.095247425 0.023124158 0.26492217
-0.087111995 0.021195618 0.26588839
-0.16325 -0.071481206 0.27552429
-0.15523051 -0.072510347 0.27491775
-0.14481638 -0.073034316 0.27487284
-0.13481532 -0.073455006 0.27442679
-0.12523845 -0.0740069 0.2748144
-0.11524906 -0.074522093 0.27507842
-0.10486771 -0.074933857 0.27484447
-0.094888948 -0.075347356 0.27469987
-0.08459907 -0.075852409 0.27500126
-0.075498842 -0.076287784 0.27536356
-0.06491524 -0.075648822 0.27481326
-0.055924296 -0.073130816 0.27589351
-0.048944168 -0.071633905 0.27954113
-0.17096433 -0.061824139 0.27725369
-0.16761383 -0.066331118 0.27443182
-0.053696916 -0.064957254 0.27309111
-0.048085015 -0.064647876 0.27823883
-0.17297992 -0.055299904 0.27495277
-0.054128412 -0.054228906 0.2737979
-0.048750296 -0.056055907 0.2786859
-0.17603406 -0.044953063 0.27487448
-0.062893458 -0.042866893 0.27402911
-0.056804691 -0.046943415 0.27652729
-0.17766073 -0.034912683 0.27470368
-0.071317784 -0.03213618 0.27452305
-0.067384705 -0.036986075 0.27557349
-0.17830092 -0.024808662 0.27542853
-0.074285589 -0.025481695 0.27502486
-0.17746511 -0.014952963 0.27499726
-0.075045019 -0.014815633 0.27465463
-0.17542668 -0.0049198973 0.27470425
-0.072065629 -0.0076712957 0.27575386
-0.06653101 -0.0034223886 0.27482671
-0.059447575 -0.00076041295 0.27961785
-0.1723108 0.0049387938 0.2751959
-0.16967607 0.0090594897 0.27117538
-0.064192675 0.0053945165 0.27402461
-0.058886547 0.0035723166 0.2789233
-0.17037344 0.010807254 0.27806136
-0.16715007 0.01549493 0.27495182
-0.081562407 0.019832874 0.27575451
-0.074468374 0.017411886 0.2753551
-0.066668585 0.012871392 0.27643329
-0.16248107 0.022212267 0.27522862
-0.15484793 0.024146961 0.27477115
-0.14529569 0.023733485 0.27527773
-0.13470829 0.023453731 0.27498376
-0.12545033 0.023094505 0.27485767
-0.11556754 0.022469258 0.27541348
-0.10510601 0.021960665 0.27492121
-0.094646916 0.021434467 0.27451748
-0.08583571 0.020738013 0.27475336
-0.16334729 -0.071781136 0.28510913
-0.15512691 -0.074049674 0.2849364
-0.14489523 -0.074918881 0.28472754
-0.13498648 -0.075456753 0.2848922
-0.12498176 -0.075944081 0.2847411
-0.11532863 -0.076517709 0.28516525
-0.10523754 -0.07710965 0.28573135
-0.094859593 -0.077377811 0.28477341
-0.084635288 -0.077844121 0.28499213
-0.074769899 -0.078410082 0.28590533
-0.065692045 -0.078652136 0.2853964
-0.054907538 -0.078279838 0.28532386
-0.045172218 -0.074855655 0.28557256
-0.038387418 -0.072305381 0.28874829
-0.17144102 -0.063203044 0.28488675
-0.1685462 -0.06778764 0.28516188
-0.043113086 -0.064662062 0.2830025
-0.037706912 -0.065292001 0.28818545
-0.17397773 -0.055428535 0.2853671
-0.044408835 -0.054553706 0.28429511
-0.038647778 -0.057325441 0.2887603
-0.17645791 -0.045315322 0.28550905
-0.060462482 -0.0404182 0.28097194
-0.054171342 -0.043758925 0.28463909
-0.047809854 -0.04834814 0.28645894
-0.17815235 -0.035152078 0.28545856
-0.070533797 -0.030884812 0.28170344
-0.064892299 -0.034188885 0.28469986
-0.058323789 -0.038239557 0.28742829
-0.17898528 -0.02485303 0.28566572
-0.073905163 -0.025164178 0.28503674
-0.067921348 -0.029344151 0.28861821
-0.17866367 -0.014291398 0.28486523
-0.0807105 -0.012245303 0.28804296
-0.078238986 -0.015210896 0.28394589
-0.17688939 -0.0050154207 0.28494963
-0.081545308 -0.004456941 0.2887007
-0.075804211 -0.0045591206 0.28442335
-0.064892732 -0.0018285809 0.28525788
-0.056163322 -0.0024414179 0.28563768
-0.049030203 -0.0020436996 0.28889504
-0.17346688 0.0053715655 0.28496769
-0.080789834 0.0011659029 0.28966224
-0.075527661 0.0015237889 0.28895897
-0.06867367 0.00069403258 0.28929007
-0.054441147 0.0057377806 0.28474808
-0.048899092 0.0024239391 0.28879592
-0.17076418 0.011522729 0.28498784
-0.16801952 0.01652552 0.28509235
-0.13321701 0.019937698 0.2896097
-0.12440185 0.019679446 0.28912377
-0.1145377 0.019425433 0.28778046
-0.10480119 0.019083489 0.28672197
-0.095365256 0.018904008 0.28554195
-0.084921129 0.018696319 0.28482887
-0.07489188 0.018078303 0.28457755
-0.064933211 0.015045143 0.28441945
-0.057823211 0.011798273 0.28662798
-0.16321872 0.021589013 0.28450552
-0.15454735 0.022080289 0.28480566
-0.14496812 0.021491442 0.28518456
-0.13499555 0.021087164 0.28519079
-0.12504087 0.020978792 0.28394422
-0.11535002 0.020665985 0.28300166
-0.10476384 0.020377902 0.28170738
-0.097148277 0.020250881 0.28048995
-0.10044143 -0.080018394 0.2994411
-0.093353465 -0.080254197 0.29890436
-0.084085032 -0.080504902 0.29821852
-0.074542277 -0.080592453 0.29686609
-0.065122105 -0.080811173 0.29625091
-0.054871287 -0.081003584 0.29548255
-0.045768343 -0.081327856 0.2964077
-0.037852567 -0.081155196 0.29834878
-0.16122471 -0.07100331 0.29175431
-0.15481903 -0.073285595 0.29507101
-0.14494851 -0.076463819 0.2950063
-0.13497016 -0.077453047 0.29559824
-0.12518945 -0.077881448 0.29521129
-0.11507536 -0.078318879 0.29461884
-0.10539955 -0.07889656 0.29494342
-0.095399797 -0.079246379 0.29426298
-0.085847311 -0.079352394 0.29279575
-0.075440668 -0.079631396 0.29222816
-0.065811373 -0.079769596 0.29110566
-0.056046348 -0.079928391 0.29037401
-0.043807812 -0.078995928 0.29141921
-0.03456261 -0.0756386 0.29438102
-0.028089512 -0.073160663 0.29820821
-0.1705482 -0.061188258 0.29030302
-0.16453652 -0.06488198 0.29467428
-0.15900435 -0.068594478 0.29843876
-0.032999352 -0.06511011 0.29290858
-0.028074315 -0.06501168 0.2978923
-0.17098561 -0.055111837 0.29120439
-0.1667503 -0.05527008 0.29574591
-0.041214313 -0.051101904 0.29126376
-0.035371166 -0.054764457 0.29468751
-0.029030811 -0.05805571 0.29875889
-0.17198481 -0.044940539 0.29214275
-0.16766123 -0.045303356 0.29687455
-0.05104994 -0.041643389 0.29223388
-0.044895448 -0.045319472 0.29498392
-0.038788229 -0.048711352 0.29800576
-0.17298101 -0.034757636 0.29295841
-0.16835673 -0.035179347 0.29808673
-0.062597878 -0.031443547 0.29271543
-0.055787668 -0.035475664 0.29565528
-0.049204666 -0.039208837 0.29873356
-0.17376128 -0.024861731 0.29377577
-0.16897425 -0.025373768 0.29906124
-0.073249139 -0.022446772 0.29360715
-0.066068761 -0.027303558 0.29513481
-0.059870586 -0.029684668 0.29986581
-0.17422955 -0.015185643 0.29471242
-0.16932626 -0.018466208 0.29972643
-0.082367651 -0.012776097 0.29537511
-0.077401243 -0.017783135 0.29622132
-0.17437415 -0.0053126239 0.2954933
-0.091028631 -0.00097411819 0.29836512
-0.086209789 -0.0051983637 0.29489174
-0.062205449 -0.00075212319 0.29173276
-0.054889433 -0.0031361782 0.29497874
-0.045056675 -0.0040340074 0.29522187
-0.03845425 -0.0026946003 0.29874805
-0.17329806 0.0050396342 0.29483542
-0.093338691 0.0056199399 0.29740387
-0.085637689 0.0048595797 0.29286471
-0.07458023 0.0062075346 0.29241812
-0.065420002 0.0039882776 0.29643431
-0.054438319 0.0052277325 0.29429269
-0.045146324 0.0052406457 0.29500279
-0.039075229 0.001592088 0.29892313
-0.17079902 0.011279653 0.29485711
-0.16625212 0.017036406 0.29579687
-0.1548447 0.019388221 0.29711512
-0.14525178 0.019165341 0.29569852
-0.13509326 0.018828869 0.29462519
-0.12485795 0.018191803 0.29505813
-0.11482202 0.017635705 0.29479459
-0.10450038 0.016651889 0.29507086
-0.095237814 0.014394077 0.2945185
-0.085091025 0.013986728 0.29195118
-0.074702837 0.014432686 0.29337725
-0.065057628 0.015120366 0.29535171
-0.054573182 0.012724068 0.29507825
-0.049068961 0.010881633 0.29775792
-0.16265567 0.020541174 0.29270235
-0.15501398 0.020489497 0.2922608
-0.14607091 0.020219045 0.29106718
-0.13807227 0.020025035 0.29007581
-0.13040188 -0.080010161 0.30872881
-0.12378814 -0.080377042 0.30833238
-0.11426087 -0.080613971 0.3068729
-0.10473228 -0.080755517 0.3046895
-0.095009133 -0.08130338 0.30476922
-0.084920652 -0.081790835 0.30480638
-0.074935615 -0.082262635 0.30511001
-0.065346688 -0.082680397 0.3053374
-0.054552063 -0.083020777 0.30488649
-0.04524551 -0.083575487 0.30537382
-0.034766976 -0.083242141 0.30486614
-0.025942493 -0.082111962 0.30709162
-0.018946311 -0.080315299 0.30989259
-0.15194008 -0.072153084 0.30252621
-0.14493339 -0.075205684 0.30549434
-0.13500886 -0.078754187 0.30522588
-0.12523949 -0.079329312 0.3030768
-0.11532525 -0.079656772 0.30194852
-0.1077902 -0.079850167 0.30069757
-0.03082265 -0.079652697 0.30043462
-0.023547098 -0.075637639 0.30352375
-0.018136069 -0.074563503 0.30784807
-0.16047695 -0.061914515 0.30084068
-0.15518747 -0.065276489 0.3049911
-0.14935142 -0.068970919 0.30964854
-0.023335326 -0.064156651 0.30291483
-0.018243354 -0.065450795 0.3079609
-0.16151081 -0.054135144 0.3016037
-0.15657738 -0.055465333 0.30653557
-0.031997409 -0.051837012 0.30237114
-0.025923615 -0.055412013 0.30545613
-0.019373804 -0.059100874 0.30909997
-0.16270806 -0.044559766 0.30247653
-0.15777642 -0.045672264 0.30759215
-0.042988364 -0.04203378 0.30274335
-0.036072094 -0.046008259 0.30578709
-0.029331539 -0.049392655 0.3094579
-0.16325705 -0.034984563 0.30379528
-0.15857795 -0.035405159 0.30886853
-0.052890081 -0.032963764 0.30415851
-0.046867471 -0.037009772 0.30568492
-0.16415082 -0.025162132 0.30444852
-0.15952262 -0.027257252 0.30921036
-0.071213275 -0.020500617 0.30083361
-0.064268723 -0.023784511 0.30477074
-0.056865063 -0.028474644 0.30658272
-0.16497546 -0.014861611 0.30503005
-0.15998687 -0.019615674 0.3098163
-0.082112066 -0.011612839 0.30406928
-0.075455643 -0.015589329 0.30527401
-0.0688731 -0.018907012 0.30798352
-0.17039657 -0.0045873481 0.30053452
-0.16575752 -0.0047921729 0.30552968
-0.092516415 -0.0025983513 0.30519432
-0.086999997 -0.0075931442 0.30525595
-0.052413888 -0.0013327247 0.3041701
-0.04538573 -0.0052683591 0.30558825
-0.034468051 -0.00567511 0.30517861
-0.028551109 -0.0044524581 0.30856732
-0.17087659 0.0045519639 0.3009569
-0.16586854 0.0050008218 0.30600941
-0.10199317 0.0076579293 0.30700418
-0.097205296 0.0037269974 0.3041465
-0.062359821 0.0065956167 0.30346644
-0.056588918 0.0030178169 0.3061716
-0.04202256 0.0085611716 0.30338106
-0.036137272 0.0046374812 0.30533728
-0.029071445 0.00083294348 0.30960894
-0.17030917 0.010264372 0.30051813
-0.16443001 0.013657588 0.30329034
-0.1553289 0.016149964 0.3055681
-0.14521846 0.017227428 0.30484
-0.1344182 0.016549068 0.30472782
-0.12533003 0.015767572 0.30528849
-0.11535816 0.015075319 0.30505955
-0.10555597 0.012846152 0.30430308
-0.099680074 0.010371028 0.30063039
-0.063608147 0.012291018 0.30261666
-0.055255294 0.012998829 0.30492979
-0.046345308 0.011324626 0.30563051
-0.13049985 -0.080064483 0.31224152
-0.12501666 -0.081135534 0.31505668
-0.11465768 -0.082057014 0.31486478
-0.10488601 -0.082627937 0.31500101
-0.094503298 -0.083232656 0.31491208
-0.084873088 -0.083803967 0.31500119
-0.075356133 -0.084249511 0.31477284
-0.064645983 -0.08490333 0.31549403
-0.05502354 -0.085223146 0.31489134
-0.044915847 -0.085706629 0.31478262
-0.035120044 -0.086294383 0.31531766
-0.024804182 -0.085848391 0.31449914
-0.015388733 -0.083980761 0.31654069
-0.0085023558 -0.081679776 0.31931692
-0.14326535 -0.07276807 0.3129226
-0.13511087 -0.07745567 0.31520599
-0.12892964 -0.079794087 0.31941265
-0.013166574 -0.074518234 0.31253225
-0.007592537 -0.074817233 0.31786662
-0.1507394 -0.062938847 0.3107549
-0.14566876 -0.065151639 0.3153457
-0.013229739 -0.064606085 0.31351066
-0.0081360526 -0.067016616 0.31817913
-0.15191968 -0.054633711 0.31167841
-0.14697766 -0.055524621 0.3166835
-0.022585385 -0.052546699 0.31357944
-0.016757688 -0.056025025 0.31626853
-0.1527985 -0.044986039 0.31313562
-0.14818206 -0.045388527 0.31800342
-0.033082794 -0.043069903 0.3143495
-0.026523242 -0.047415107 0.31609586
-0.15394452 -0.034973066 0.3139756
-0.14912996 -0.036047123 0.31898406
-0.050758168 -0.030812051 0.31105658
-0.044197727 -0.033809971 0.31494728
-0.037268534 -0.038228214 0.31671539
-0.15464655 -0.024883496 0.3148205
-0.14959151 -0.028218456 0.31977871
-0.061380472 -0.021610646 0.31385422
-0.055066079 -0.025419585 0.315348
-0.048606586 -0.028846519 0.3178364
-0.16023833 -0.013146497 0.31040573
-0.15510616 -0.015153839 0.3156139
-0.080332994 -0.010155544 0.31175244
-0.074116908 -0.01300735 0.31449637
-0.066177122 -0.017667206 0.31539088
-0.030430568 -0.010068987 0.31697401
-0.0250315 -0.010622986 0.31719723
-0.019272538 -0.010703443 0.319042
-0.16097732 -0.0041756984 0.31071833
-0.15605913 -0.0045783361 0.31582901
-0.092694372 -0.0019864894 0.31451049
-0.084879816 -0.0064482288 0.31501591
-0.078823671 -0.0093745608 0.31691977
-0.050019216 -0.00024693989 0.31032687
-0.043927088 -0.0028554834 0.31413016
-0.035211306 -0.0079671722 0.31505728
-0.023669371 -0.0054232883 0.3138617
-0.018347999 -0.0054230778 0.31864181
-0.16093391 0.0039634374 0.31114259
-0.15575108 0.0058905762 0.31543708
-0.14948379 0.0091114696 0.31919548
-0.10419977 0.0066456171 0.31549442
-0.097960927 0.0018265196 0.31565976
-0.053157248 0.0050946362 0.31287554
-0.046777379 0.0054029571 0.31781575
-0.034230415 0.0079032239 0.3153376
-0.02628134 0.0031137348 0.3158524
-0.15416753 0.012294279 0.31245953
-0.14478087 0.013838218 0.31533176
-0.13459899 0.014482331 0.31494331
-0.12488338 0.013733278 0.31485525
-0.11457679 0.012616091 0.31508344
-0.10853159 0.011201861 0.31229386
-0.052973948 0.010871188 0.31220773
-0.044733357 0.010905041 0.31365222
-0.039661847 0.010045907 0.3162843
-0.014591257 -0.090140298 0.32941622
-0.12323855 -0.081247821 0.32376581
-0.11487658 -0.083473191 0.32500848
-0.10448348 -0.084531181 0.32529432
-0.094527774 -0.085017666 0.32476652
-0.084784284 -0.085682392 0.32486552
-0.07465519 -0.086462423 0.32535848
-0.064849414 -0.086995326 0.32503238
-0.055012066 -0.087640509 0.32552898
-0.044987801 -0.088059865 0.32511893
-0.03535033 -0.088383123 0.32458723
-0.025587019 -0.088832185 0.3249287
-0.015128791 -0.088488236 0.32475868
-0.0050043818 -0.084866591 0.32522282
0.0019040682 -0.082238629 0.32828987
-0.13353783 -0.073607557 0.32386735
-0.12758084 -0.077405341 0.3265416
-0.0025042733 -0.074945927 0.32289374
0.002333926 -0.075382456 0.32755262
-0.14112429 -0.063621141 0.32064766
-0.13602388 -0.065089062 0.32558328
-0.0038190836 -0.064388484 0.32345122
0.0017410789 -0.06537208 0.32853732
-0.14196241 -0.05409649 0.32239687
-0.13711026 -0.055503469 0.32718286
-0.013377125 -0.053306285 0.32422093
-0.0059110844 -0.056812745 0.32681915
0.00052308041 -0.059051543 0.32912505
-0.14326313 -0.04432486 0.32354581
-0.13863042 -0.045517862 0.32822812
-0.031107526 -0.04054518 0.32096872
-0.024244916 -0.044125654 0.32415241
-0.01716757 -0.048195399 0.326893
-0.14402586 -0.035049133 0.32461405
-0.13973279 -0.036436021 0.32896358
-0.042130735 -0.031109497 0.32266554
-0.035055336 -0.035098206 0.32511467
-0.028672641 -0.038557015 0.32748634
-0.15024273 -0.020500682 0.32012066
-0.14509423 -0.025476163 0.32492504
-0.053563241 -0.022353647 0.32409701
-0.04605322 -0.026876783 0.32549128
-0.038931511 -0.029927509 0.32936418
-0.15062352 -0.012297705 0.32067314
-0.1454989 -0.014601426 0.32575971
-0.071727052 -0.011405666 0.32347569
-0.064728566 -0.015024717 0.32490927
-0.057542179 -0.018525323 0.32705906
-0.02351827 -0.011490715 0.32445368
-0.015415691 -0.01258543 0.32604954
-0.0081489719 -0.011674409 0.32855475
-0.15104321 -0.0057108109 0.32091385
-0.14617355 -0.0048667872 0.32596436
-0.091273263 -0.00071239559 0.32219222
-0.085347034 -0.0031408158 0.32511315
-0.076573491 -0.0078496709 0.32585177
-0.041369516 -0.00098757877 0.32235929
-0.034252647 -0.0047842851 0.32503468
-0.027623655 -0.00840702 0.32706791
-0.013795163 -0.0041434974 0.32421702
-0.0085175745 -0.0070996936 0.32823414
-0.15089947 0.003461381 0.32094395
-0.14555022 0.0048853997 0.32483673
-0.13766868 0.008354512 0.32838616
-0.11138264 0.0099214381 0.32768631
-0.10479496 0.006949869 0.32431549
-0.095569037 0.0024856757 0.32569245
-0.04279466 0.004968171 0.32273737
-0.03586898 0.0068564764 0.32542244
-0.025281789 0.0057355096 0.32441929
-0.017592438 0.0022048405 0.32614818
-0.1419979 0.011178732 0.32199779
-0.13430203 0.011854422 0.32423884
-0.12513392 0.011876596 0.32454494
-0.11529128 0.010999208 0.3241581
-0.062678196 -0.090195201 0.33941844
-0.05435048 -0.090509415 0.33813128
-0.044852979 -0.090763085 0.33686236
-0.034817234 -0.090963759 0.33575574
-0.024681795 -0.091232643 0.33533838
-0.015039833 -0.091433056 0.33502808
-0.0050460105 -0.09143351 0.33543101
0.0031593773 -0.091245718 0.33838317
-0.12085347 -0.080442749 0.33088985
-0.11429702 -0.082710795 0.33445176
-0.10486898 -0.085837908 0.33521768
-0.09514977 -0.086847208 0.33505183
-0.084846541 -0.087455243 0.33453754
-0.074746549 -0.088369116 0.33505872
-0.064973235 -0.089043543 0.33463889
-0.054946829 -0.089244537 0.33259657
-0.045778919 -0.089651003 0.33223394
-0.036557999 -0.089853033 0.33121082
-0.003192116 -0.089050166 0.3310155
0.0054966188 -0.085515432 0.33375031
0.0123695 -0.083231263 0.33797002
-0.13023046 -0.070068605 0.33021331
-0.12406442 -0.074129708 0.33441374
-0.11864533 -0.077894695 0.33780098
0.0075010797 -0.075045958 0.33267638
0.012612815 -0.075412348 0.33769512
-0.13109012 -0.064652473 0.33090976
-0.12609646 -0.065264396 0.33600274
0.006371079 -0.065158591 0.33316463
0.011759999 -0.065237366 0.33841583
-0.13243207 -0.054744162 0.3324126
-0.12785402 -0.055045247 0.3372308
-0.010979029 -0.050334774 0.33020568
-0.0028386032 -0.052277226 0.33183327
0.0051494236 -0.054649331 0.33448985
0.010992715 -0.056589868 0.33914828
-0.13381544 -0.044429459 0.33366281
-0.12856984 -0.045813456 0.33895841
-0.021590663 -0.041348267 0.33211461
-0.014804743 -0.04395292 0.33459824
-0.0048516877 -0.045048174 0.33606145
0.0050513651 -0.045175713 0.33738434
-0.1347611 -0.034726866 0.33453283
-0.12996982 -0.037254307 0.33921364
-0.032489542 -0.032142177 0.33403391
-0.025886653 -0.036003545 0.33575866
-0.016670616 -0.03930416 0.33881366
-0.0031885253 -0.036766682 0.33954936
0.0038470174 -0.034489091 0.33904618
-0.1403565 -0.022219211 0.33032849
-0.13545023 -0.024938419 0.33512923
-0.050846726 -0.020621652 0.33221215
-0.044279642 -0.02375323 0.33478177
-0.037272394 -0.028028164 0.33563298
-0.0032952176 -0.023439575 0.33864278
0.0031577335 -0.025263602 0.33861524
-0.14058909 -0.014468535 0.33086473
-0.13575515 -0.014795586 0.33580056
-0.063717939 -0.012298772 0.33457085
-0.0552832 -0.016936824 0.33495885
-0.048945237 -0.019382296 0.33819771
-0.021390922 -0.010720871 0.33187801
-0.01486316 -0.013669955 0.33512244
-0.0051105721 -0.015677117 0.33444503
0.0024930565 -0.015853308 0.33773708
-0.1411037 -0.0040568472 0.33112413
-0.13599093 -0.005171326 0.33612251
-0.082680792 -0.0017735426 0.33469623
-0.07522551 -0.0055510909 0.33565915
-0.068014413 -0.0090999743 0.33701006
-0.032503322 -0.0019373872 0.33224553
-0.025446733 -0.0058736764 0.33572423
-0.015428148 -0.005083065 0.33445138
-0.00438886 -0.0046717837 0.33472228
0.0012958111 -0.0084058838 0.33823925
-0.1410415 0.0020807965 0.33042485
-0.13489851 0.0044332538 0.33387879
-0.12545057 0.0079848599 0.33606559
-0.11484151 0.0092034247 0.33484328
-0.10514211 0.0080949618 0.33492497
-0.094785206 0.0045564868 0.33525407
-0.087385803 0.0012970023 0.3367731
-0.033202652 0.0034417703 0.33273232
-0.025368856 0.0051016249 0.33519438
-0.014690255 0.0032491456 0.33466196
-0.0081453482 0.00098441308 0.33766878
-0.12430156 0.01043718 0.33105546
-0.1180062 0.01015981 0.33103874
-0.084057651 -0.090220325 0.34919864
-0.07457488 -0.090557344 0.34696802
-0.064810954 -0.091173328 0.34554243
-0.055398356 -0.09186478 0.34502232
-0.045240946 -0.092521042 0.34488332
-0.0352793 -0.092976302 0.34460911
-0.02509512 -0.093454249 0.34506425
-0.015038773 -0.093707532 0.34503177
-0.0050150957 -0.093824044 0.34463018
0.0048282696 -0.093773119 0.34518558
0.014593466 -0.092113353 0.346775
0.02103187 -0.090788491 0.34969041
-0.11157186 -0.081246041 0.34254539
-0.10512024 -0.084230937 0.34508419
-0.095105574 -0.088090777 0.34507328
-0.085425705 -0.08923059 0.34442744
-0.076507606 -0.089586899 0.34248522
-0.06916035 -0.089896068 0.34062579
0.0098466752 -0.089458898 0.34007001
0.016473884 -0.085366942 0.34268698
0.022593264 -0.083992057 0.34771588
-0.12029904 -0.070891879 0.34040803
-0.11493783 -0.074714825 0.34436271
-0.10926118 -0.07851366 0.34852377
0.017684896 -0.074736774 0.34286281
0.022191683 -0.075065255 0.34735355
-0.12136656 -0.06384027 0.34144077
-0.11673341 -0.065534927 0.34580886
0.016806651 -0.065088764 0.34333828
0.022026636 -0.065566085 0.34838358
-0.12263669 -0.055164743 0.34278312
-0.11792243 -0.055797573 0.34765014
0.016027803 -0.054511894 0.34415025
0.021115594 -0.055483036 0.34876963
-0.1240109 -0.044512648 0.34410533
-0.11911549 -0.046904601 0.34878948
0.0095032109 -0.042546704 0.34042647
0.015458159 -0.045634471 0.34509254
0.020598194 -0.046982292 0.34954873
-0.12439771 -0.034745079 0.34544572
-0.11991916 -0.038028579 0.34966946
-0.030115262 -0.030477557 0.34075466
-0.023702545 -0.032376613 0.34349069
-0.014791666 -0.034141831 0.34308398
-0.0067569669 -0.034203589 0.34125504
0.0086542936 -0.033949126 0.34102032
0.014714938 -0.035277974 0.34615979
-0.13042447 -0.023267321 0.34053981
-0.12583242 -0.024771733 0.34512329
-0.042344987 -0.021282263 0.34335145
-0.035321198 -0.025040301 0.34497306
-0.025195677 -0.028372779 0.3477461
-0.014641566 -0.025050327 0.34679559
-0.006927372 -0.026246684 0.34170502
0.0079699708 -0.02505224 0.34159908
0.013457417 -0.025379529 0.34669772
-0.13075753 -0.014611267 0.34092528
-0.12549345 -0.015491571 0.34620079
-0.061414689 -0.010970798 0.34239265
-0.054529577 -0.013868942 0.34490579
-0.046417497 -0.017978748 0.34584826
-0.014983624 -0.014917857 0.34434256
-0.0091865072 -0.01958354 0.34021026
0.0075058909 -0.01505013 0.34283504
0.012192857 -0.015479348 0.34750381
-0.1313206 -0.0053300313 0.34074607
-0.12560284 -0.0049862885 0.34614745
-0.080828279 -0.00033571958 0.34300849
-0.074886031 -0.0028985334 0.34495372
-0.065836444 -0.0073947106 0.34601378
-0.021946725 -0.0035026663 0.3430419
-0.018773628 -0.0063839681 0.3465085
-0.0017417312 -0.001236771 0.34255144
0.0041110925 -0.0046917559 0.34541336
0.01095954 -0.008929071 0.34873378
-0.13018954 0.00090233673 0.3404212
-0.12380221 0.0033889029 0.34337696
-0.11495455 0.00577167 0.34533378
-0.10475914 0.0067158272 0.34521726
-0.094862014 0.0056642084 0.34565794
-0.084771581 0.0022835496 0.34534907
-0.078943372 0.0003629007 0.3489165
-0.022773162 0.0024835342 0.34234709
-0.015045407 0.0030320617 0.34491074
-0.0053742314 0.0013408193 0.34555906
-0.084281072 -0.090880193 0.3549917
-0.074762218 -0.091954038 0.35501608
-0.064758673 -0.092819676 0.35494965
-0.054807033 -0.093805008 0.35519814
-0.045300942 -0.094550982 0.35483688
-0.035166003 -0.095164523 0.35450122
-0.025108406 -0.095670007 0.35479498
-0.014751676 -0.095995009 0.35507041
-0.0047457651 -0.096161537 0.35501602
0.0052276403 -0.096370615 0.35512996
0.015045786 -0.096070938 0.35481369
0.024798842 -0.093678974 0.35584548
0.03142602 -0.09199401 0.35883853
-0.10276294 -0.081927195 0.35297841
-0.095166504 -0.086234078 0.35549435
-0.088929094 -0.089585207 0.35596368
0.0276915 -0.085669972 0.35287982
0.032374218 -0.085075885 0.35702378
-0.11065439 -0.070826136 0.35052395
-0.10513222 -0.075821027 0.35455561
-0.099471591 -0.078859352 0.35947281
0.027576301 -0.074797526 0.35283267
0.032611046 -0.075627871 0.35783881
-0.11160769 -0.064193003 0.35168368
-0.10695799 -0.065260135 0.35627174
0.026410805 -0.064379528 0.35285693
0.031715162 -0.064930059 0.35808697
-0.11323045 -0.054532669 0.35304505
-0.10825805 -0.05553006 0.35805607
0.026070341 -0.054997619 0.35363182
0.03128596 -0.056281328 0.35860369
-0.1140318 -0.044880971 0.35458493
-0.1090942 -0.048351057 0.35907507
0.025302306 -0.045061048 0.35437375
0.030816259 -0.047102798 0.35942948
-0.12007951 -0.033727378 0.35011411
-0.11473361 -0.035197254 0.35542992
0.019284252 -0.032987263 0.35076687
0.024293751 -0.03495957 0.35527122
-0.12050559 -0.023574306 0.35069397
-0.11564824 -0.02477487 0.35553068
-0.03352825 -0.02198494 0.35347074
-0.025704378 -0.022971893 0.35366696
-0.018871719 -0.021677313 0.35117903
0.018328477 -0.024665529 0.35157326
0.02350615 -0.02530987 0.35662618
-0.12079867 -0.014536613 0.35098839
-0.11566896 -0.014846429 0.35608682
-0.053009957 -0.011484802 0.35446215
-0.045263819 -0.015592569 0.35442472
-0.036727984 -0.018922396 0.35700801
-0.022714881 -0.016640538 0.35747573
-0.018439021 -0.014608779 0.35307458
0.017036149 -0.014085546 0.35297903
0.022098618 -0.015463147 0.35785669
-0.1207825 -0.0063345497 0.3510156
-0.11523019 -0.0043582045 0.35540453
-0.10811895 -0.00081993494 0.3592068
-0.073300742 -0.0012498538 0.35346207
-0.064888835 -0.005025351 0.35536933
-0.056910481 -0.0088812895 0.3562336
-0.017592313 -0.0043634535 0.35521445
0.0055208467 -0.0016047595 0.35507765
0.013658192 -0.006340499 0.35536087
0.02045765 -0.0093735419 0.35971764
-0.11310919 0.002043491 0.35248992
-0.10534628 0.0035622364 0.35472143
-0.094873667 0.0043029357 0.35520545
-0.084875248 0.0033949118 0.35481888
-0.077303208 0.0012718907 0.35570261
-0.012752437 0.0011600328 0.35454389
-0.0049583032 0.00089596037 0.35493135
0.00084075902 0.00013351634 0.35447726
0.030286154 -0.1000157 0.3699986
-0.082120307 -0.091006465 0.363774
-0.074994877 -0.093059726 0.3651484
-0.064965077 -0.094474919 0.36496353
-0.0550448 -0.095398746 0.36495322
-0.045078985 -0.09643998 0.36538026
-0.034940887 -0.097271957 0.3651273
-0.024825877 -0.097899817 0.36509112
-0.015054318 -0.098114818 0.36452124
-0.0047216485 -0.098377347 0.36483526
0.0054283044 -0.098599099 0.36523956
0.015335717 -0.098705158 0.36488092
0.025119012 -0.098530121 0.36496919
0.035009377 -0.095559739 0.36542526
0.041884635 -0.093125701 0.36824739
-0.092897758 -0.083229281 0.36346635
-0.086965367 -0.086633481 0.36648056
0.037672285 -0.085995458 0.36220768
0.043047167 -0.084761605 0.36743042
-0.100361 -0.071406186 0.36119986
-0.095030174 -0.075258434 0.36554331
0.037369855 -0.075098544 0.36273238
0.042085569 -0.075060748 0.3675459
-0.10175822 -0.064175814 0.36218622
-0.096847698 -0.065715045 0.36686924
0.036617391 -0.064827703 0.363029
0.041764434 -0.065020889 0.36823642
-0.10382088 -0.054764178 0.36298519
-0.098347075 -0.055815607 0.36846498
0.036233097 -0.054726899 0.36375275
0.041111413 -0.054849755 0.36867276
-0.10477123 -0.044445835 0.36434799
-0.099593334 -0.044970658 0.36965129
0.035867933 -0.04439206 0.36496511
0.040593803 -0.046803057 0.36932024
-0.11022534 -0.033419456 0.36028871
-0.10516875 -0.035012856 0.36527115
0.029286817 -0.033409066 0.36056498
0.03490629 -0.035261665 0.36583626
-0.11068397 -0.024140798 0.36057895
-0.10540088 -0.024579756 0.36584529
0.028352043 -0.024999222 0.3616457
0.033303261 -0.025454769 0.36661774
-0.1108669 -0.015958177 0.36081555
-0.10594865 -0.014993375 0.36568391
-0.050782468 -0.010512277 0.36109486
-0.044210907 -0.012817069 0.36433107
-0.03452114 -0.014739818 0.36566085
-0.025713155 -0.013184948 0.36401758
0.026843991 -0.014092253 0.36381781
0.031834491 -0.016791694 0.36774313
-0.11057907 -0.0073929243 0.36079371
-0.10506029 -0.0050024656 0.36438927
-0.097140327 -0.0020727071 0.3681879
-0.071005084 -0.00030051067 0.36120334
-0.064925767 -0.0023875113 0.36487475
-0.054955099 -0.0071604056 0.36532372
-0.048869133 -0.0090754079 0.36914936
-0.021994371 -0.0076847435 0.36690184
-0.015605301 -0.0025894602 0.364602
-0.0054642181 -0.00097661139 0.36495748
0.0054344004 -0.0014670942 0.3641426
0.015283055 -0.0039706812 0.36499262
0.023231609 -0.0078277122 0.3660579
-0.10114051 0.0010759813 0.36163777
-0.094688371 0.0018028505 0.36349657
-0.085226066 0.0017909447 0.36536273
-0.074964091 0.0009462607 0.3648949
-0.069895491 0.00016254418 0.36700687
-0.010364456 0.00012492786 0.36013207
-0.0067054266 4.2038824e-05 0.36016741
-0.031032832 -0.10008489 0.37923944
-0.023837483 -0.10046722 0.37801918
-0.014178156 -0.10081812 0.37698254
-0.0048142681 -0.10077395 0.37560174
0.0054592011 -0.10092033 0.37584639
0.015325321 -0.10095876 0.37565735
0.024947358 -0.10105421 0.37511876
0.034493927 -0.1013031 0.37577045
0.042473089 -0.10119989 0.37791893
-0.080043718 -0.090293802 0.37011367
-0.074030161 -0.092059076 0.37473503
-0.065103933 -0.095478296 0.37502143
-0.055226993 -0.097024016 0.37500453
-0.045262087 -0.097977035 0.37500727
-0.035223413 -0.098937176 0.37477887
-0.025780337 -0.099404074 0.37301281
-0.015566429 -0.099635445 0.3715269
-0.0044431766 -0.099758394 0.37100029
0.0029209969 -0.09981297 0.37090957
0.015610989 -0.099908575 0.37059268
0.021267235 -0.099972777 0.37026161
0.036750551 -0.099501863 0.37161496
0.045588888 -0.096096762 0.37370598
0.052391112 -0.093376361 0.37752321
-0.083499059 -0.084152237 0.37354654
-0.077821344 -0.087425083 0.37732428
0.047836997 -0.084646568 0.37219611
0.052855145 -0.085172296 0.37718117
-0.090942301 -0.073163539 0.37051237
-0.08612626 -0.075522006 0.37477276
0.047069509 -0.074926019 0.37267226
0.052274846 -0.075566612 0.37793139
-0.092345238 -0.064303733 0.37212276
-0.087206922 -0.065648563 0.37706569
0.046961639 -0.064885288 0.37362123
0.051677626 -0.06454847 0.37860137
-0.093649864 -0.054914903 0.373642
-0.088649601 -0.055967279 0.37858635
0.046388362 -0.0547591 0.37413701
0.050924305 -0.054860804 0.37891471
-0.094570398 -0.044905216 0.37480924
-0.089482918 -0.04733067 0.37964395
0.045914315 -0.04499099 0.37512088
0.050604336 -0.047649194 0.37959602
-0.10037198 -0.033203866 0.37032413
-0.095047571 -0.034912113 0.37553662
0.03918707 -0.033065129 0.37069562
0.043988589 -0.03507781 0.37514928
-0.10068 -0.024493726 0.37057063
-0.095611177 -0.025431495 0.3755624
0.038278837 -0.024956781 0.37187129
0.04308895 -0.025042666 0.37680906
-0.10066972 -0.014876134 0.37085474
-0.095653825 -0.014678624 0.37566069
-0.042429242 -0.010769851 0.37145534
-0.035017673 -0.011066018 0.37156007
-0.029813655 -0.010361833 0.37099114
0.029853154 -0.010485347 0.37040579
0.035683591 -0.01388891 0.37428525
0.041572113 -0.017294262 0.37811565
-0.10060632 -0.0097479932 0.37059119
-0.094170421 -0.0060471059 0.37386093
-0.08529669 -0.0027230745 0.37640089
-0.074568085 -0.00076029834 0.37547791
-0.065506399 -0.0014245326 0.37493849
-0.055234607 -0.0046218922 0.37473392
-0.045253716 -0.0080509614 0.37593687
-0.035137985 -0.0080945129 0.37666395
-0.02511752 -0.0058953562 0.37474141
-0.015098847 -0.0030652292 0.37519583
-0.0047619049 -0.0028154554 0.3749004
0.0053833583 -0.0032904833 0.37527972
0.015038773 -0.0039312537 0.37474176
0.02529528 -0.0063566142 0.37455252
0.032093957 -0.0089688906 0.37664351
-0.083407275 0.00042847221 0.37110212
-0.076461188 0.00022835811 0.37139973
-0.043411851 -0.10032727 0.38835603
-0.034462843 -0.10077573 0.38562816
-0.025766036 -0.1016252 0.38564569
-0.014907079 -0.10236774 0.38506985
-0.0049257474 -0.10281402 0.38520089
0.0046684095 -0.10287673 0.38491493
0.015275046 -0.10292428 0.38506618
0.02534022 -0.10305502 0.38519931
0.034956668 -0.10334168 0.38516048
0.044803515 -0.10331088 0.38488358
0.053403392 -0.10228759 0.38652426
-0.071402408 -0.09099891 0.3811838
-0.065042146 -0.093478866 0.38490811
-0.055549316 -0.097818948 0.38496217
-0.045281947 -0.099442534 0.38411686
-0.037946485 -0.099785268 0.3817012
0.057230111 -0.096021853 0.38345546
0.062038403 -0.093373097 0.38695416
-0.074096993 -0.084500782 0.38387173
-0.068595223 -0.086830676 0.38867167
0.057873458 -0.085206069 0.38218811
0.06265825 -0.084834002 0.38714316
-0.08123114 -0.072549604 0.38089427
-0.076203458 -0.075135663 0.38524863
0.057338893 -0.074792609 0.3831512
0.062066577 -0.075846493 0.38778004
-0.082304016 -0.064421088 0.38262394
-0.077353135 -0.065326132 0.38749409
0.056614034 -0.06517823 0.38373715
0.061284114 -0.06547641 0.38860601
-0.08390338 -0.054579467 0.3838501
-0.07888829 -0.056663074 0.38849765
0.055893037 -0.055186674 0.38428676
0.060552552 -0.05562165 0.3893581
-0.085371591 -0.044856958 0.38418722
-0.079487205 -0.047509246 0.38977385
0.054793656 -0.045168351 0.38456437
0.060007375 -0.047775015 0.38992536
-0.090255067 -0.03327306 0.38048199
-0.085263908 -0.034809995 0.38533312
0.049178366 -0.033379618 0.38089165
0.054076139 -0.035364311 0.38564134
-0.090651035 -0.024998846 0.38048825
-0.085306294 -0.024987588 0.38572854
0.04810527 -0.024335757 0.38219801
0.053010214 -0.024786528 0.38718662
-0.090522572 -0.015653418 0.38073477
-0.085446097 -0.014983274 0.38535184
-0.079696357 -0.010986063 0.38926318
0.038788471 -0.010755883 0.38275623
0.044946399 -0.014852719 0.38478667
0.051209599 -0.018473485 0.38816157
-0.083766215 -0.0069685434 0.38283831
-0.075290427 -0.0046678665 0.38532838
-0.065141931 -0.0031315146 0.38486117
-0.054690652 -0.0040289951 0.38466021
-0.044583224 -0.0053544478 0.38484845
-0.035353959 -0.0054177009 0.38494939
-0.024951318 -0.0049956273 0.38568783
-0.014901132 -0.0047351108 0.38539264
-0.0052911472 -0.0046398211 0.3852447
0.0049440041 -0.004941544 0.38523689
0.015155172 -0.0054551307 0.38439444
0.024720384 -0.0063756816 0.38526991
0.034417134 -0.0082267318 0.38525227
0.040163212 -0.0098419655 0.38785079
-0.0437968 -0.10086845 0.39473101
-0.034844298 -0.10218555 0.39475581
-0.024651179 -0.10323543 0.39484021
-0.014392926 -0.10421743 0.3950811
-0.0045447228 -0.10479221 0.39497393
0.0051540378 -0.10506551 0.39522424
0.01517024 -0.10496863 0.39484218
0.024984676 -0.10501488 0.39490935
0.035020053 -0.10535847 0.39508346
0.044932887 -0.10589382 0.39570457
0.05495641 -0.10429108 0.3951045
0.060294531 -0.1000477 0.39656821
-0.06202998 -0.092057958 0.39184967
-0.055256397 -0.095275775 0.39518484
-0.048255302 -0.09937755 0.39601257
0.059787162 -0.098456487 0.39825627
0.06276112 -0.094451003 0.39537895
-0.064222835 -0.085019328 0.39425731
-0.059034143 -0.087721258 0.39874792
0.059390694 -0.086297199 0.39995283
0.064959966 -0.085093476 0.39567927
-0.071256265 -0.07271985 0.39125559
-0.066171907 -0.075388886 0.39560756
0.065945007 -0.074993014 0.39524171
-0.072930001 -0.064095512 0.39250615
-0.067493528 -0.065501146 0.3976742
0.065607101 -0.064995393 0.39477199
-0.074209787 -0.05439217 0.39382428
-0.068791591 -0.056928247 0.3987858
0.064672954 -0.055168126 0.39441323
-0.080022939 -0.041170068 0.39004999
-0.075090453 -0.045425281 0.3944613
-0.069672301 -0.047138132 0.39967334
0.059749883 -0.042073574 0.39055631
0.064359695 -0.04513808 0.39550298
-0.080372714 -0.033384446 0.39026868
-0.075286761 -0.035189904 0.39517987
0.059077229 -0.034357823 0.39125502
0.063237846 -0.035183348 0.39575312
-0.080455668 -0.025453215 0.39046884
-0.075527713 -0.025014829 0.39528146
0.057398789 -0.024266165 0.39204413
0.062570125 -0.025452556 0.39721042
-0.080452695 -0.017038951 0.39046657
-0.074888311 -0.014617113 0.39478248
-0.068878464 -0.012701424 0.39906403
0.046283223 -0.011236212 0.39475816
0.054641895 -0.01609733 0.39544469
0.060912777 -0.018808652 0.39937204
-0.072327599 -0.0078579681 0.39215335
-0.064627416 -0.006742978 0.39510569
-0.055303682 -0.0055537894 0.39488325
-0.04472794 -0.0059581646 0.39495522
-0.034758244 -0.0063571543 0.39518476
-0.025185877 -0.0065745078 0.39585617
-0.015339276 -0.0064392807 0.39536822
-0.0048776274 -0.0064044041 0.39484426
0.0047091758 -0.0067013633 0.39516839
0.014842636 -0.0071554673 0.39494243
0.025210408 -0.0078448355 0.39485806
0.035474889 -0.0086351279 0.39433935
0.041297942 -0.0096044224 0.3953124
-0.041802589 -0.10091014 0.40304035
-0.035334945 -0.10283727 0.40534863
-0.024804771 -0.10477042 0.40481171
-0.015315603 -0.10585462 0.40546963
-0.0051966957 -0.10656375 0.40472335
0.005229631 -0.10711795 0.40543199
0.015173361 -0.10707984 0.40503696
0.02506692 -0.1072979 0.40582296
0.035017181 -0.10736069 0.40479922
0.045515854 -0.1067356 0.40536508
0.05381114 -0.10332046 0.40337735
-0.052566845 -0.092915826 0.40251997
-0.046131056 -0.096350051 0.40608475
-0.039723311 -0.09981706 0.40986454
0.048384387 -0.095492363 0.40845299
0.054725315 -0.095548645 0.40336242
0.060184591 -0.091788903 0.40008512
-0.054475456 -0.084983096 0.40455306
-0.049120273 -0.088193014 0.40913951
0.04931109 -0.08740703 0.4086805
0.054868132 -0.085053809 0.40340844
0.061290756 -0.081285499 0.40042588
-0.061451014 -0.073480166 0.40122187
-0.056294188 -0.075712062 0.40583432
0.055617951 -0.075208761 0.40533203
0.062815398 -0.074526653 0.40141636
-0.062936887 -0.064445294 0.40273359
-0.057652548 -0.065595709 0.40782613
0.056394726 -0.065176658 0.40710616
0.064166278 -0.064610995 0.4026854
-0.063747108 -0.054179836 0.40444779
-0.058874935 -0.055688616 0.40905282
0.058033187 -0.056437451 0.40804723
0.065015696 -0.054832514 0.40408888
-0.064901523 -0.045215413 0.40462548
-0.059509195 -0.048471313 0.40960446
0.059177145 -0.04814887 0.40905559
0.065528676 -0.045032326 0.40555868
-0.070236914 -0.034746334 0.40017039
-0.065034889 -0.034684975 0.40525126
0.06705647 -0.035030916 0.4056327
-0.070264123 -0.022557881 0.40042272
-0.06546928 -0.02449215 0.40502232
0.065747783 -0.025385361 0.40507507
-0.064222269 -0.015171501 0.40408346
-0.056665782 -0.012537536 0.40816247
0.017391549 -0.010013656 0.40961963
0.027088569 -0.010351417 0.40905553
0.035780281 -0.010558083 0.40707713
0.044932563 -0.010978519 0.40515873
0.055031534 -0.013328886 0.4049713
0.061160062 -0.018118411 0.40502316
-0.061577793 -0.009286046 0.40128753
-0.054242816 -0.0079888245 0.40311018
-0.045197926 -0.0078978622 0.40528837
-0.034682322 -0.0080059962 0.40465665
-0.025048874 -0.0081870453 0.40449947
-0.014922553 -0.0083562173 0.40495014
-0.0046321787 -0.0083713718 0.40463021
0.0043879044 -0.0085633555 0.4046177
0.015001229 -0.0088950247 0.40452552
0.024556156 -0.0093943998 0.40460151
0.034282796 -0.0097017596 0.40262154
0.041710488 -0.0099748522 0.40068668
-0.033506904 -0.10194926 0.41413414
-0.025168644 -0.10523944 0.41572317
-0.014871254 -0.10736623 0.41532084
-0.0049264687 -0.10838695 0.41547015
0.0050663897 -0.10887927 0.41505638
0.014581093 -0.10903476 0.41510028
0.02505631 -0.10909135 0.41498646
0.035657756 -0.10771143 0.41614985
0.043576021 -0.10433628 0.41399008
-0.042548832 -0.092913292 0.41393843
-0.037403945 -0.096380502 0.41717285
0.038305357 -0.094418347 0.41864362
0.043733753 -0.095240399 0.41327572
-0.050141808 -0.080808274 0.41049618
-0.044969156 -0.085003212 0.41455975
-0.039401609 -0.088084288 0.41942307
0.038472414 -0.088875853 0.41899401
0.044576548 -0.084993914 0.41474211
0.05005357 -0.080183916 0.41019833
-0.051349081 -0.074506722 0.41147244
-0.046607789 -0.075434595 0.41616237
0.04587416 -0.074846223 0.41585353
0.050986908 -0.074055098 0.41101119
-0.052938286 -0.06484405 0.41290715
-0.048142426 -0.06534297 0.41769636
0.047540992 -0.064986527 0.4171173
0.05133266 -0.064805351 0.41192707
-0.054017361 -0.054732289 0.41408718
-0.04896808 -0.055591512 0.41896686
0.04813176 -0.055542972 0.41808912
0.053412367 -0.054823786 0.41266307
-0.0545022 -0.045053743 0.41487479
-0.049625419 -0.045646012 0.41957584
0.049125962 -0.048396125 0.41902682
0.054959845 -0.044595536 0.41471815
-0.055026107 -0.034928098 0.41497114
0.056090929 -0.034981083 0.41562653
0.062464476 -0.033297598 0.41103896
-0.060167093 -0.023602948 0.41011643
-0.05494497 -0.024752138 0.41506124
-0.049305644 -0.020673247 0.4197706
0.057451814 -0.025958106 0.41733751
0.062010739 -0.02440932 0.41260126
-0.054271668 -0.016416831 0.41299579
-0.045862015 -0.012906432 0.41585854
-0.034837443 -0.01085427 0.41751289
-0.024778832 -0.010711123 0.41659227
-0.014762175 -0.010857797 0.41607437
-0.0045965207 -0.010825932 0.41536647
0.0055039786 -0.010961496 0.41529018
0.014964152 -0.011250587 0.4154534
0.025097184 -0.011658079 0.41558444
0.035311237 -0.011989862 0.41456863
0.044885665 -0.012681833 0.4150202
0.055935938 -0.01478226 0.41543239
0.060807478 -0.018540867 0.41270724
-0.042816211 -0.0094081927 0.41142899
-0.034328781 -0.0095493253 0.41237301
-0.024210928 -0.0096740648 0.41164047
-0.01643591 -0.0097011803 0.41110423
-0.0054572597 -0.00972002 0.41079664
0.004322276 -0.009833985 0.41053644
0.012598543 -0.0099878535 0.4101778
-0.0030912091 -0.11046269 0.42827201
0.0048631723 -0.11069376 0.42586339
0.014900445 -0.11087672 0.42553627
0.024415493 -0.11048662 0.42453873
-0.030613957 -0.10036048 0.42163968
-0.024701385 -0.10331262 0.4242934
-0.015258858 -0.10776051 0.42470282
-0.006123777 -0.10947705 0.42375991
0.0029684496 -0.10983723 0.42119133
0.0109315 -0.1099277 0.42021248
0.028364349 -0.10675438 0.42767766
0.033838555 -0.10478792 0.42375591
-0.033048682 -0.094145939 0.42379007
-0.028567012 -0.096047468 0.42780471
0.028553028 -0.095623896 0.42872611
0.033259917 -0.094834074 0.42391497
-0.040567141 -0.080495156 0.42081067
-0.034976881 -0.085321665 0.42511141
-0.02946368 -0.089414209 0.42961025
0.029258 -0.087278128 0.42929986
0.034589734 -0.084504358 0.42497548
0.040177915 -0.083455414 0.42019832
-0.04162062 -0.07463254 0.42170578
-0.036379684 -0.075516596 0.42691943
0.036722753 -0.075387865 0.42561761
0.04100249 -0.073977947 0.42109612
-0.042954259 -0.064819291 0.4231154
-0.038119867 -0.06502372 0.42793345
0.037969925 -0.065334424 0.42730337
0.042617418 -0.063834265 0.42273721
-0.044048559 -0.054706275 0.42394826
-0.038752779 -0.055103254 0.42906591
0.039161183 -0.055866465 0.4290213
0.043883707 -0.055003434 0.42432773
-0.044947769 -0.044372573 0.42420456
-0.03941654 -0.047081109 0.42933539
0.039414376 -0.045705467 0.42935735
0.044682737 -0.044663951 0.42500427
0.050549995 -0.04235211 0.42049214
-0.044780653 -0.03517456 0.42484558
-0.039786398 -0.035158165 0.42965871
0.039913408 -0.038750757 0.42999074
0.045574423 -0.035114102 0.42629963
0.05104043 -0.034664955 0.42113945
-0.044817019 -0.024723284 0.42462265
-0.039275635 -0.022627976 0.4292345
0.047377255 -0.026702905 0.42782292
0.053070698 -0.024118861 0.42377689
-0.043425556 -0.017303698 0.42258
-0.034731619 -0.014454885 0.42492908
-0.025323862 -0.012731004 0.42521262
-0.014655368 -0.012896391 0.42504075
-0.0049654334 -0.013216287 0.42519403
0.0048653809 -0.013254154 0.42468402
0.014709715 -0.013577688 0.42519134
0.025105653 -0.013773523 0.42456535
0.03536785 -0.014382191 0.42514518
0.045170583 -0.015347126 0.42496359
0.05291098 -0.017130015 0.42333394
-0.0037447021 -0.11088648 0.43487906
0.005100897 -0.11220227 0.43538135
0.014548508 -0.1119051 0.434405
0.021539891 -0.11069267 0.43243518
-0.021660822 -0.1013933 0.43180886
-0.014847141 -0.10513225 0.4349463
-0.0083782477 -0.10923405 0.43518066
0.018673606 -0.10450657 0.43861187
0.02388945 -0.10484783 0.43410006
-0.023335932 -0.094724149 0.43424344
-0.018963231 -0.096095972 0.43846887
0.018883567 -0.097081929 0.43862176
0.02384292 -0.095196076 0.43400359
-0.03070244 -0.082927816 0.43051416
-0.025533862 -0.084706277 0.4353942
0.025472876 -0.084633008 0.4348923
0.030096797 -0.081400014 0.43039203
-0.031836808 -0.074010059 0.43207425
-0.027022157 -0.074684322 0.43675256
0.026689818 -0.075397231 0.43682992
0.031872988 -0.073981732 0.43228137
-0.032941885 -0.064549789 0.43316966
-0.027793374 -0.06519077 0.43806678
0.027585788 -0.065679207 0.43771294
0.033456985 -0.064639769 0.43271452
-0.033703443 -0.05478945 0.43399593
-0.028615439 -0.055063039 0.43882307
0.028495152 -0.05621678 0.43848699
0.034555003 -0.054560628 0.43316439
-0.034749422 -0.044812944 0.43399739
-0.029016996 -0.045308873 0.43942255
0.02932319 -0.04828221 0.439441
0.034456007 -0.044939671 0.43501213
-0.034958873 -0.034603279 0.4343479
-0.029389566 -0.035790201 0.43967435
0.029816085 -0.038484085 0.43984532
0.034875482 -0.035636183 0.43627831
0.041115012 -0.032698829 0.43139568
-0.034196738 -0.025175039 0.43441349
-0.028113237 -0.023062641 0.43891189
0.037872504 -0.027105067 0.43770701
0.043067235 -0.024594633 0.43425524
-0.031944118 -0.017936293 0.43197843
-0.0245614 -0.01654223 0.43472201
-0.015004635 -0.015122431 0.43497375
-0.004644935 -0.015452927 0.43504423
0.004910558 -0.015663674 0.43459648
0.015674714 -0.015935507 0.43493894
0.024578406 -0.016236758 0.43542254
0.035114527 -0.017067708 0.43527988
0.043186612 -0.017871223 0.43222168
-0.0017992757 -0.11083587 0.4419992
0.0054021347 -0.1117124 0.44252482
0.012204835 -0.11135271 0.4424589
-0.01208653 -0.10288914 0.44221929
-0.0059685512 -0.1060897 0.44543454
0.0056089084 -0.10658728 0.44749689
0.013875842 -0.10432872 0.443672
-0.013729556 -0.094551794 0.44457316
-0.0090670586 -0.095809974 0.44900766
0.0091554215 -0.095202707 0.4489224
0.01412141 -0.094414912 0.44397622
-0.02079471 -0.083430991 0.44070384
-0.01526803 -0.085388109 0.4455995
0.0095590921 -0.089167796 0.44946393
0.015396752 -0.084800802 0.44529709
0.020991387 -0.083399795 0.44069865
-0.02196618 -0.074570224 0.44176626
-0.016296459 -0.074917145 0.4469732
0.016246619 -0.075192101 0.4458752
0.021230116 -0.074959755 0.44120705
-0.023252733 -0.064547792 0.44247088
-0.017127676 -0.065145001 0.44794032
0.016840816 -0.065215014 0.44733632
0.02315324 -0.064583659 0.44265351
-0.023584977 -0.054977018 0.44353494
-0.018217914 -0.055841904 0.44834056
0.018432848 -0.056467667 0.44907704
0.023503326 -0.054958798 0.4440209
-0.024548318 -0.044743057 0.44368982
-0.018404301 -0.045743622 0.44934896
0.019614203 -0.046800982 0.44987035
0.024615148 -0.044882402 0.44532013
0.030507542 -0.043038465 0.4400847
-0.024350075 -0.03540042 0.44455665
-0.019378379 -0.034926377 0.44937706
0.025836466 -0.035069369 0.44584486
0.031169347 -0.033237573 0.44093695
